# .PCD v0.7 - Point Cloud Data file format
VERSION 0.7
FIELDS x y z
SIZE 4 4 4
TYPE F F F
COUNT 1 1 1
WIDTH 1480
HEIGHT 1
VIEWPOINT 0 0 0 1 0 0 0
POINTS 1480
DATA ascii
-0.61270994 0.70549256 0.3640807
-1.6703057 0.87043875 -0.88493955
-0.65338272 0.70295435 0.41174152
-1.7926055 0.87264645 -0.84764707
-0.55113226 0.69344139 0.46317208
-2.2164006 0.89912856 -0.92132384
-0.45367247 0.68459117 0.50985426
-2.414149 0.90573871 -0.89378422
-0.50495756 0.68261003 0.55681366
-2.7662506 0.92335153 -0.90770352
-0.52916259 0.67931306 0.60442531
-0.83807725 0.76945007 -0.21247433
-5.5936852 0.87379968 1.0382823
-0.81768328 0.76252687 -0.14806505
-5.6433935 0.86019802 1.2096578
-0.83821517 0.75859106 -0.09540531
-5.8299122 0.85120344 1.3997229
-0.81854177 0.75194633 -0.033637084
-5.8511539 0.83589864 1.5752329
-0.80312866 0.74572629 0.025682427
-0.40934891 0.65358746 0.82176769
-0.91151541 0.85205454 -0.9828071
-0.76630104 0.74535447 0.088596731
-1.0387467 0.85812581 -0.98034745
-0.6728965 0.73436415 0.15713316
-1.2035171 0.86749935 -0.9934299
-0.67654735 0.7297914 0.20831297
-1.3051413 0.86989212 -0.96501553
-0.66504908 0.72436506 0.2606076
-1.4548992 0.87655914 -0.9569605
-0.60454637 0.71619582 0.31630966
-1.5876838 0.88103282 -0.93433917
-0.6163798 0.71231121 0.36444324
-1.6606929 0.87960333 -0.88002598
-0.64308232 0.7091459 0.41275832
-1.858537 0.88882518 -0.87384212
-0.59276551 0.70197999 0.46308765
-2.2363281 0.9125672 -0.92806309
-0.47735155 0.69185376 0.51058656
-2.3365297 0.91169477 -0.86525184
-0.51264548 0.68923151 0.55763566
-2.6481721 0.92735964 -0.86777157
-0.53883541 0.68607855 0.60554558
-0.83963424 0.77693892 -0.21237276
-5.5826626 0.89550912 1.039573
-0.81925654 0.76994419 -0.14792539
-5.5985794 0.88071495 1.2073439
-0.82432723 0.76493526 -0.091290802
-5.8248506 0.87389946 1.4013541
-0.82208341 0.75948942 -0.033853501
-5.8480787 0.8587296 1.5770682
-0.79691815 0.75253999 0.027553618
-5.845161 0.84234917 1.7518779
-0.91456288 0.85919988 -0.98426384
-0.80721778 0.75451183 0.08174485
-1.0401044 0.86543667 -0.98068827
-0.68047547 0.7409361 0.1564603
-1.2013869 0.87490511 -0.99176204
-0.67623901 0.73584318 0.20887524
-1.3082726 0.87811565 -0.96612841
-0.67069548 0.73075366 0.26051673
-1.4669869 0.88606989 -0.96235532
-0.60822767 0.72228098 0.31651145
-1.5763991 0.88864869 -0.92850173
-0.6320228 0.71911335 0.36399299
-1.6401495 0.88658839 -0.87043899
-0.6407842 0.7149812 0.41338882
-1.9872059 0.90988803 -0.9257412
-0.63041019 0.70982552 0.46302277
-2.2357953 0.92302114 -0.92709202
-0.50902915 0.69898486 0.51132673
-2.373553 0.92563045 -0.87760586
-0.52034801 0.69520259 0.55839777
-2.8066647 0.95214659 -0.91906643
-0.55450708 0.69247979 0.60692763
-0.84311783 0.78377581 -0.21292493
-5.57967 0.91506207 1.0412447
-0.81892741 0.77641332 -0.14732434
-5.5776958 0.89953774 1.207175
-0.8162635 0.77082837 -0.088728651
-5.8357167 0.89468032 1.4047134
-0.81980944 0.76581675 -0.032807283
-0.4157055 0.66928244 0.77838248
-0.79659224 0.75893688 0.02814794
-5.8382158 0.86246526 1.7527546
-0.90741444 0.86522037 -0.97946298
-0.79509234 0.76008701 0.084463969
-1.0328404 0.87181544 -0.97601473
-0.69789141 0.74823761 0.15425135
-1.1974933 0.88211393 -0.98913246
-0.68382674 0.74242747 0.20838974
-1.3078493 0.88599139 -0.96539611
-0.67037177 0.73678589 0.26107749
-1.4629669 0.8940258 -0.95982182
-0.61586845 0.72863817 0.3163754
-1.5488302 0.89460355 -0.91512352
-0.63369709 0.72515345 0.36441919
-1.6962923 0.9007985 -0.89430726
-0.64445543 0.7211557 0.41378602
-1.9294959 0.91432381 -0.90147793
-0.67401749 0.71821988 0.46288383
-2.2277861 0.93279815 -0.92327845
-0.56664282 0.70770597 0.51227772
-2.399266 0.93878078 -0.88593751
-0.5240401 0.70100826 0.55904102
-2.8098054 0.96450984 -0.91919333
-0.60007751 0.70046806 0.60993332
-0.85802841 0.79158711 -0.21694838
-5.5806079 0.93479121 1.0432237
-0.8147378 0.78257 -0.14565401
-5.5587525 0.91833735 1.2071973
-0.80625099 0.7765249 -0.085680768
-5.8266926 0.91465878 1.4056183
-0.81557345 0.77198333 -0.03131716
-0.43518996 0.67539424 0.78179413
-0.80406594 0.76591212 0.027144883
-5.8548522 0.88347101 1.7576841
-0.04669489 -1.2126405 -1.185876
1.4827856 0.59440744 0.49594158
-0.12031569 -1.3051447 -1.1838789
1.4827856 0.59440744 0.49594158
-0.21925826 -1.4280424 -1.2025683
1.4827856 0.59440744 0.49594158
-0.32718104 -1.5621843 -1.2216059
1.4827856 0.59440744 0.49594158
-0.41277713 -1.6701562 -1.2129682
1.4827856 0.59440744 0.49594158
-0.49773282 -1.7777543 -1.1978732
-21.852196 -28.36137 -4.3461671
-0.75688839 -2.0949078 -1.3181299
1.4827856 0.59440744 0.49594158
-0.98329747 -2.3741021 -1.3914006
1.4827856 0.59440744 0.49594158
-1.1693361 -2.6057153 -1.418558
1.4827856 0.59440744 0.49594158
-1.2809323 -2.7482173 -1.3812529
1.4827856 0.59440744 0.49594158
-1.412783 -2.915828 -1.3485378
1.4827856 0.59440744 0.49594158
-1.7835518 -3.3742709 -1.4500118
1.4827856 0.59440744 0.49594158
-1.9578209 -3.59532 -1.4140381
1.4827856 0.59440744 0.49594158
-2.2686477 -3.9839079 -1.4351135
1.4827856 0.59440744 0.49594158
1.4827856 0.59440744 0.49594158
1.4827856 0.59440744 0.49594158
1.4827856 0.59440744 0.49594158
1.4827856 0.59440744 0.49594158
-0.052138522 -1.208289 -1.185586
1.4827856 0.59440744 0.49594158
-0.11743551 -1.2904818 -1.1746176
1.4827856 0.59440744 0.49594158
-0.22421736 -1.4219254 -1.2011653
1.4827856 0.59440744 0.49594158
-0.32919842 -1.5518312 -1.2170984
1.4827856 0.59440744 0.49594158
-0.42953378 -1.6767025 -1.2216237
1.4827856 0.59440744 0.49594158
-0.51038867 -1.778862 -1.202305
-22.003773 -28.382391 -4.3562655
-0.75569367 -2.0776815 -1.3103464
1.4827856 0.59440744 0.49594158
-0.98510587 -2.3588583 -1.3856653
-38.770947 -49.2691 -4.8224211
-1.1600958 -2.5758979 -1.4046739
1.4827856 0.59440744 0.49594158
-1.2930379 -2.7432408 -1.3823217
1.4827856 0.59440744 0.49594158
-1.4206314 -2.90481 -1.3464917
1.4827856 0.59440744 0.49594158
-1.7938732 -3.3636272 -1.4486907
1.4827856 0.59440744 0.49594158
-1.9711409 -3.5870879 -1.4140567
1.4827856 0.59440744 0.49594158
-2.28427 -3.9762895 -1.4356505
1.4827856 0.59440744 0.49594158
1.4827856 0.59440744 0.49594158
1.4827856 0.59440744 0.49594158
1.4827856 0.59440744 0.49594158
1.4827856 0.59440744 0.49594158
-0.057187017 -1.2021378 -1.1840999
1.4827856 0.59440744 0.49594158
-0.12918305 -1.2916641 -1.1798732
1.4827856 0.59440744 0.49594158
-0.22990748 -1.4151914 -1.1997201
1.4827856 0.59440744 0.49594158
-0.33086127 -1.539542 -1.2115064
1.4827856 0.59440744 0.49594158
-0.43711728 -1.6706038 -1.2212163
1.4827856 0.59440744 0.49594158
-0.58736682 -1.8542211 -1.2604926
1.4827856 0.59440744 0.49594158
-0.77027941 -2.0773439 -1.3144701
-29.590479 -37.573193 -4.7337909
-0.99255389 -2.348259 -1.3833847
1.4827856 0.59440744 0.49594158
-1.1787159 -2.5772412 -1.4099669
1.4827856 0.59440744 0.49594158
-1.3228533 -2.7569475 -1.394436
1.4827856 0.59440744 0.49594158
-1.3322709 -2.7760863 -1.2828054
1.4827856 0.59440744 0.49594158
-1.8008043 -3.3460541 -1.4444586
1.4827856 0.59440744 0.49594158
-1.9835413 -3.5746953 -1.4126619
1.4827856 0.59440744 0.49594158
-2.2954569 -3.959975 -1.4329944
1.4827856 0.59440744 0.49594158
1.4827856 0.59440744 0.49594158
1.4827856 0.59440744 0.49594158
1.4827856 0.59440744 0.49594158
1.4827856 0.59440744 0.49594158
-0.065118931 -1.2020128 -1.1873165
1.4827856 0.59440744 0.49594158
-0.1298175 -1.2826284 -1.175128
1.4827856 0.59440744 0.49594158
-0.22969213 -1.4045476 -1.1940328
1.4827856 0.59440744 0.49594158
-0.33642536 -1.5350416 -1.2112052
1.4827856 0.59440744 0.49594158
-0.43401909 -1.6553016 -1.2128893
1.4827856 0.59440744 0.49594158
-0.5959788 -1.851768 -1.2620709
1.4827856 0.59440744 0.49594158
-0.77028292 -2.0636399 -1.3085783
1.4827856 0.59440744 0.49594158
-0.99432009 -2.3352768 -1.3785847
-35.459915 -44.646965 -4.3376012
-1.1657605 -2.5456672 -1.3944769
1.4827856 0.59440744 0.49594158
-1.3195971 -2.7359755 -1.386035
1.4827856 0.59440744 0.49594158
-1.3837653 -2.8202569 -1.3093641
1.4827856 0.59440744 0.49594158
-1.8036036 -3.3293567 -1.4396721
1.4827856 0.59440744 0.49594158
-2.0037749 -3.5777404 -1.4174014
1.4827856 0.59440744 0.49594158
-2.3069522 -3.9506772 -1.4323721
1.4827856 0.59440744 0.49594158
1.4827856 0.59440744 0.49594158
1.4827856 0.59440744 0.49594158
1.4827856 0.59440744 0.49594158
1.4827856 0.59440744 0.49594158
-0.069071993 -1.1945946 -1.1846693
1.4827856 0.59440744 0.49594158
-0.13832502 -1.2799798 -1.1770202
1.4827856 0.59440744 0.49594158
-0.23641711 -1.3990777 -1.1936659
1.4827856 0.59440744 0.49594158
-0.33910865 -1.5240567 -1.2066529
1.4827856 0.59440744 0.49594158
-0.4189868 -1.6229029 -1.1924627
1.4827856 0.59440744 0.49594158
-0.56534719 -1.7998207 -1.2289724
1.4827856 0.59440744 0.49594158
-0.77564132 -2.0524149 -1.3053389
1.4827856 0.59440744 0.49594158
-0.99119306 -2.3123462 -1.3684014
-35.511505 -44.420013 -4.3179588
-1.1655238 -2.5247855 -1.38639
-47.379745 -58.981308 -4.073957
-1.3127377 -2.7060645 -1.3735356
1.4827856 0.59440744 0.49594158
-1.4691328 -2.898957 -1.3552785
1.4827856 0.59440744 0.49594158
-1.8091769 -3.3103566 -1.4347299
1.4827856 0.59440744 0.49594158
-2.0270686 -3.5782473 -1.42197
1.4827856 0.59440744 0.49594158
-2.3241453 -3.9415958 -1.4328064
1.4827856 0.59440744 0.49594158
1.4827856 0.59440744 0.49594158
1.4827856 0.59440744 0.49594158
1.4827856 0.59440744 0.49594158
1.4827856 0.59440744 0.49594158
-0.071247771 -1.186494 -1.1809009
1.4827856 0.59440744 0.49594158
-0.13416049 -1.2641177 -1.1666409
1.4827856 0.59440744 0.49594158
-0.23024726 -1.3802112 -1.1814568
1.4827856 0.59440744 0.49594158
-0.33760005 -1.5098479 -1.1990222
1.4827856 0.59440744 0.49594158
-0.44367111 -1.6384928 -1.2081103
1.4827856 0.59440744 0.49594158
-0.54496872 -1.7621059 -1.2055378
1.4827856 0.59440744 0.49594158
-0.79732972 -2.062201 -1.3159405
-29.670689 -37.020779 -4.67624
-0.9927246 -2.297163 -1.3626662
-35.824417 -44.542564 -4.3351874
-1.1782029 -2.5214527 -1.3883942
1.4827856 0.59440744 0.49594158
-1.3116612 -2.6855996 -1.3658659
1.4827856 0.59440744 0.49594158
-1.4492859 -2.8553181 -1.3359648
1.4827856 0.59440744 0.49594158
-1.8168799 -3.2968023 -1.4319859
1.4827856 0.59440744 0.49594158
-2.0488915 -3.5798914 -1.4266132
1.4827856 0.59440744 0.49594158
-2.3347769 -3.9279816 -1.4308485
1.4827856 0.59440744 0.49594158
1.4827856 0.59440744 0.49594158
1.4827856 0.59440744 0.49594158
1.4827856 0.59440744 0.49594158
1.4827856 0.59440744 0.49594158
-0.075541273 -1.1808488 -1.1794463
1.4827856 0.59440744 0.49594158
-0.14410986 -1.2645146 -1.1708059
1.4827856 0.59440744 0.49594158
-0.24611703 -1.3867643 -1.1908486
1.4827856 0.59440744 0.49594158
-0.33602315 -1.495666 -1.1913924
1.4827856 0.59440744 0.49594158
-0.45370847 -1.6369591 -1.210744
1.4827856 0.59440744 0.49594158
-0.51749545 -1.716567 -1.1763515
-22.386253 -28.002274 -4.3265944
-0.79239696 -2.040962 -1.3053968
-29.879576 -37.057514 -4.6874175
-0.99770641 -2.2860813 -1.3595631
-35.85033 -44.317299 -4.3151999
-1.1944371 -2.5222096 -1.3929005
1.4827856 0.59440744 0.49594158
-1.3164628 -2.672138 -1.3621628
1.4827856 0.59440744 0.49594158
-1.4701726 -2.8597357 -1.3421575
1.4827856 0.59440744 0.49594158
-1.8306024 -3.2903547 -1.4327734
1.4827856 0.59440744 0.49594158
-2.0621939 -3.5713866 -1.4266065
1.4827856 0.59440744 0.49594158
-2.3478236 -3.9172442 -1.4301251
1.4827856 0.59440744 0.49594158
1.4827856 0.59440744 0.49594158
1.4827856 0.59440744 0.49594158
1.4827856 0.59440744 0.49594158
1.4827856 0.59440744 0.49594158
-0.078322791 -1.1721956 -1.1756396
1.4827856 0.59440744 0.49594158
-0.15148705 -1.2605587 -1.1715738
1.4827856 0.59440744 0.49594158
-0.25167441 -1.3799782 -1.1893963
1.4827856 0.59440744 0.49594158
-0.3464092 -1.4937181 -1.194121
1.4827856 0.59440744 0.49594158
-0.46344346 -1.6333942 -1.2123277
1.4827856 0.59440744 0.49594158
-0.52749556 -1.7128429 -1.1778411
-22.521616 -27.980331 -4.3305039
-0.80347252 -2.0364034 -1.3067459
-30.03573 -37.003113 -4.6868558
-1.0013463 -2.2714036 -1.3546455
-36.008633 -44.219879 -4.3094149
-1.1999558 -2.5082057 -1.3889858
1.4827856 0.59440744 0.49594158
-1.328395 -2.6646426 -1.3623562
1.4827856 0.59440744 0.49594158
-1.5093025 -2.882695 -1.3587681
1.4827856 0.59440744 0.49594158
-1.8213483 -3.2542989 -1.4193476
1.4827856 0.59440744 0.49594158
-2.0880291 -3.5744908 -1.4324782
1.4827856 0.59440744 0.49594158
-2.3723509 -3.9166887 -1.4342561
1.4827856 0.59440744 0.49594158
1.4827856 0.59440744 0.49594158
1.4827856 0.59440744 0.49594158
1.4827856 0.59440744 0.49594158
1.4827856 0.59440744 0.49594158
-0.085819505 -1.1701961 -1.1776524
1.4827856 0.59440744 0.49594158
-0.15486029 -1.2534348 -1.1690233
1.4827856 0.59440744 0.49594158
-0.26092845 -1.3788414 -1.1923015
1.4827856 0.59440744 0.49594158
-0.35263544 -1.4885318 -1.1937703
1.4827856 0.59440744 0.49594158
-0.47577888 -1.6343873 -1.2169546
1.4827856 0.59440744 0.49594158
-0.55051881 -1.7256289 -1.1908894
-22.443464 -27.725338 -4.2941866
-0.80538839 -2.0232506 -1.3017156
-30.145306 -36.919609 -4.6815295
-1.0050479 -2.2589648 -1.3506635
-36.09581 -44.069443 -4.2974243
-1.2066634 -2.497889 -1.386804
1.4827856 0.59440744 0.49594158
-1.3174582 -2.6331332 -1.3483461
1.4827856 0.59440744 0.49594158
-1.4987988 -2.8504264 -1.3454571
1.4827856 0.59440744 0.49594158
-1.8312987 -3.243577 -1.4180121
1.4827856 0.59440744 0.49594158
-2.1185696 -3.5858862 -1.4417387
1.4827856 0.59440744 0.49594158
-2.3791678 -3.8986356 -1.430431
1.4827856 0.59440744 0.49594158
1.4827856 0.59440744 0.49594158
1.4827856 0.59440744 0.49594158
1.4827856 0.59440744 0.49594158
1.4827856 0.59440744 0.49594158
-0.084190533 -1.156666 -1.1692177
1.4827856 0.59440744 0.49594158
-0.16552249 -1.2531511 -1.1731404
1.4827856 0.59440744 0.49594158
-0.25861967 -1.3632091 -1.1832906
1.4827856 0.59440744 0.49594158
-0.34715134 -1.468617 -1.1819381
1.4827856 0.59440744 0.49594158
-0.48322862 -1.6281447 -1.2165314
1.4827856 0.59440744 0.49594158
-0.5536021 -1.7138896 -1.1866137
1.4827856 0.59440744 0.49594158
-0.80938184 -2.0106349 -1.2975489
-30.229223 -36.779228 -4.6691318
-1.0085576 -2.2443004 -1.3457447
-36.529106 -44.296703 -4.326519
-1.2036901 -2.4743037 -1.3770435
1.4827856 0.59440744 0.49594158
-1.3292732 -2.6256287 -1.3485363
1.4827856 0.59440744 0.49594158
-1.5234828 -2.8563507 -1.3530573
1.4827856 0.59440744 0.49594158
-1.8376946 -3.2260125 -1.4137702
1.4827856 0.59440744 0.49594158
-2.1395972 -3.5830362 -1.4449404
1.4827856 0.59440744 0.49594158
-2.3937519 -3.8864148 -1.4296029
1.4827856 0.59440744 0.49594158
1.4827856 0.59440744 0.49594158
1.4827856 0.59440744 0.49594158
1.4827856 0.59440744 0.49594158
1.4827856 0.59440744 0.49594158
-0.092419133 -1.1561297 -1.1724027
1.4827856 0.59440744 0.49594158
-0.17405111 -1.2524666 -1.1761956
1.4827856 0.59440744 0.49594158
-0.2528879 -1.3460259 -1.1721861
1.4827856 0.59440744 0.49594158
-0.35633248 -1.4675792 -1.184726
1.4827856 0.59440744 0.49594158
-0.48021108 -1.6125693 -1.2081811
1.4827856 0.59440744 0.49594158
-0.55768186 -1.705862 -1.1843287
1.4827856 0.59440744 0.49594158
-0.81659007 -2.004559 -1.2971362
-30.345837 -36.71735 -4.6664224
-1.0104377 -2.230963 -1.3409147
-38.073612 -45.872913 -4.4999237
-1.2157269 -2.4712873 -1.379064
1.4827856 0.59440744 0.49594158
-1.3368828 -2.6168137 -1.3472389
1.4827856 0.59440744 0.49594158
-1.5500131 -2.8679378 -1.3630035
1.4827856 0.59440744 0.49594158
-1.8517888 -3.221473 -1.4152921
1.4827856 0.59440744 0.49594158
-2.1620958 -3.5862825 -1.4502509
1.4827856 0.59440744 0.49594158
-2.404628 -3.8747613 -1.428291
1.4827856 0.59440744 0.49594158
-2.7807207 -4.318202 -1.4516324
1.4827856 0.59440744 0.49594158
1.4827856 0.59440744 0.49594158
1.4827856 0.59440744 0.49594158
-0.10164893 -1.1547207 -1.1755278
1.4827856 0.59440744 0.49594158
-0.18251887 -1.2496344 -1.1780703
1.4827856 0.59440744 0.49594158
-0.26843894 -1.3504976 -1.1804392
1.4827856 0.59440744 0.49594158
-0.35982698 -1.4578989 -1.1812093
1.4827856 0.59440744 0.49594158
-0.49105644 -1.6101863 -1.2107531
1.4827856 0.59440744 0.49594158
-0.58872551 -1.7255497 -1.2030629
1.4827856 0.59440744 0.49594158
-0.82285494 -1.9945905 -1.2948028
-30.481998 -36.63842 -4.6625414
-1.0221741 -2.2257261 -1.3421278
-38.038635 -45.536716 -4.4686608
-1.2186042 -2.4545531 -1.3734758
1.4827856 0.59440744 0.49594158
-1.3571687 -2.6188741 -1.3529649
1.4827856 0.59440744 0.49594158
-1.5944725 -2.8958802 -1.3825642
1.4827856 0.59440744 0.49594158
-1.8506569 -3.1954498 -1.4068129
1.4827856 0.59440744 0.49594158
-2.1856675 -3.5860898 -1.4547613
1.4827856 0.59440744 0.49594158
-2.4216413 -3.8653247 -1.4286894
1.4827856 0.59440744 0.49594158
-2.7966194 -4.3047223 -1.4507154
1.4827856 0.59440744 0.49594158
1.4827856 0.59440744 0.49594158
1.4827856 0.59440744 0.49594158
-0.003157638 0.32872188 -0.46698973
-0.64368099 0.13342562 0.057231303
-0.37200993 0.25797635 -0.64721429
-0.64823627 0.12795362 0.10814467
-0.73553926 0.18634015 -0.80274391
-0.63622701 0.12611279 0.16190308
0.11092134 0.33779857 -0.26328984
-0.6229021 0.12467626 0.21454914
0.054554805 0.32364541 -0.2522096
-0.60834724 0.12359387 0.26642916
-0.70797235 0.17439118 -0.59008932
-0.61008567 0.11889669 0.31600749
-0.70961177 0.16867232 -0.52843523
-0.60097927 0.11665332 0.36656591
-0.7061919 0.16400626 -0.46526292
-0.614079 0.10936344 0.41537359
-0.16459133 0.26623309 -0.18154654
-0.62606329 0.102283 0.46477905
-0.7234239 0.15026486 -0.35307786
-0.66415995 0.088985741 0.51538944
-0.75229853 0.13931453 -0.30464241
-0.63492125 0.091513753 0.56526881
-0.75207037 0.13432226 -0.24633309
-0.62791842 0.088836968 0.6151455
-0.74102867 0.13164565 -0.18553303
-0.60037893 0.091092706 0.66357446
-0.7417593 0.12657714 -0.12893683
-7.4930644 -1.5894001 1.4384602
-0.26471043 0.22282916 0.049208444
1.4735744 0.59112692 0.49527508
-0.68746758 0.12860385 -0.0054944959
1.4735744 0.59112692 0.49527508
-0.009099327 0.33200657 -0.46986893
-0.65464222 0.13729191 0.055763122
-0.44217747 0.25091904 -0.68940955
-0.65731269 0.13221627 0.10725515
-0.73357397 0.19316247 -0.80020565
-0.64145941 0.13115743 0.16180338
0.11348331 0.34225732 -0.2610389
-0.63201028 0.12882024 0.21402012
0.053628087 0.32762879 -0.25186482
-0.61552191 0.12810504 0.26629293
-0.71646088 0.17918304 -0.59307045
-0.61143595 0.12470144 0.31650996
-0.71639031 0.17377424 -0.53041303
-0.60427046 0.12199068 0.36694565
-0.71302122 0.16907209 -0.46711433
-0.61737925 0.1147306 0.41580257
-0.16747805 0.2704671 -0.18190008
-0.63132018 0.10722885 0.465229
-0.72668993 0.15605429 -0.35325304
-0.65969849 0.096287042 0.51584768
-0.75189763 0.14591497 -0.30343911
-0.65964097 0.091909707 0.56655675
-0.74792743 0.14168024 -0.24393366
-0.61955982 0.096970886 0.61509478
-0.74622226 0.13707113 -0.18614896
-0.59008193 0.099625289 0.66312665
-0.7432 0.13276961 -0.12840083
1.4735744 0.59112692 0.49527508
-0.23545727 0.23403439 0.057413097
-0.51087946 0.11020973 0.75230366
-0.72704387 0.12658131 -0.013802556
-0.51316279 0.10544038 0.80129153
0.0081977844 0.33931428 -0.45763677
-0.65792507 0.14282948 0.055882204
-0.03780029 0.32714975 -0.43837526
-0.66638261 0.13652551 0.10636996
-0.72817624 0.20057446 -0.79566884
-0.64474678 0.13664198 0.16201028
0.11433309 0.34638798 -0.25974873
-0.63335842 0.13469067 0.21452853
0.057955891 0.33257216 -0.24876387
-0.62074411 0.13307732 0.2663725
-0.71610463 0.18565461 -0.59166074
-0.61276948 0.13050967 0.317013
-0.7285164 0.17790443 -0.53489423
-0.60754776 0.12734225 0.36732697
-0.71623248 0.17485791 -0.46737638
-0.618716 0.12055051 0.41630661
-0.1703546 0.27471405 -0.18225218
-0.6424163 0.110872 0.46559951
-0.72443235 0.16293094 -0.35130495
-0.64741492 0.10534534 0.51622665
-0.76258373 0.15031928 -0.30621707
1.4735744 0.59112692 0.49527508
-0.74935526 0.14789522 -0.24339537
-0.65978998 0.093718767 0.61783296
-0.73450476 0.1459285 -0.18158248
1.4735744 0.59112692 0.49527508
-0.75595909 0.13665497 -0.13104878
-1.3449229 -0.077766269 0.79272151
-0.23465389 0.23920074 0.058312703
-7.4264579 -1.5396695 1.6494207
-0.75137216 0.12795627 -0.018563006
1.4735744 0.59112692 0.49527508
0.030397356 0.34787089 -0.44213268
-0.6690414 0.14753634 0.054487463
-0.022040747 0.33481669 -0.4275687
-0.67175967 0.14243725 0.10625309
-0.71268642 0.21050614 -0.78507072
-0.6501205 0.14247203 0.16197923
0.10299014 0.34884959 -0.26512992
-0.63873458 0.14047173 0.2145858
0.056943133 0.33704272 -0.24837646
-0.62028801 0.1400626 0.26715338
-0.71943867 0.19224447 -0.59193885
-0.61425102 0.13704845 0.31757972
-0.73009014 0.18485174 -0.53429216
-0.6090247 0.13386196 0.36789203
-0.73223698 0.1790655 -0.47311765
-0.62800574 0.12537265 0.41658217
-0.17152832 0.27989554 -0.18180311
-0.6634326 0.11313027 0.46590531
-0.74805188 0.16563225 -0.35918579
-0.63721365 0.11462396 0.5166831
-0.77899849 0.15448815 -0.31091067
1.4735744 0.59112692 0.49527508
-0.77146816 0.15086621 -0.24959996
1.4735744 0.59112692 0.49527508
-0.74547309 0.15101209 -0.18385564
-7.2932353 -1.4423642 1.211861
-0.76321989 0.14252859 -0.13203198
-1.3004254 -0.058081418 0.78856903
-0.24918066 0.24187188 0.055379275
-1.2705479 -0.056829005 0.85162014
-0.7567789 0.13416386 -0.018838296
1.4735744 0.59112692 0.49527508
0.062726244 0.35743552 -0.42021435
-0.69150913 0.14920402 0.050666604
-0.085336357 0.3285169 -0.4656406
-0.67309695 0.14842334 0.1067722
-0.70552009 0.21811076 -0.77954257
-0.66112101 0.14637917 0.16097748
0.10213022 0.35269862 -0.26479611
-0.64199126 0.14595234 0.21483919
0.054304942 0.34071028 -0.24894924
-0.6293726 0.14424416 0.26681402
-0.71019548 0.20029718 -0.58614695
-0.61749893 0.14244628 0.31791878
-0.72252905 0.19265351 -0.52958333
-0.61032009 0.13966089 0.36839494
-0.73903686 0.18425137 -0.47495764
1.4735744 0.59112692 0.49527508
-0.17438085 0.28416449 -0.18215284
1.4735744 0.59112692 0.49527508
-0.75495768 0.17081258 -0.36076531
-0.65218884 0.11744937 0.51733404
-0.7896747 0.1590232 -0.31367663
-25.497658 -5.474298 1.415031
-0.76913637 0.15786833 -0.24781789
-9.4469471 -1.8872628 1.1273913
-0.74873948 0.1568498 -0.18389213
-7.2656374 -1.4104474 1.2112663
-0.76461685 0.14878061 -0.13148981
-1.323468 -0.055307359 0.79149503
-0.27879632 0.24098235 0.048520554
-7.405426 -1.479502 1.6497015
-0.75052059 0.14193743 -0.016537774
1.4735744 0.59112692 0.49527508
0.073383138 0.36379036 -0.41228196
-0.70454216 0.15368703 0.04889274
-0.084736198 0.33372617 -0.46417448
-0.67072135 0.15594572 0.10805404
1.4735744 0.59112692 0.49527508
-0.68389976 0.14870915 0.15823068
0.11502089 0.35939336 -0.25675616
-0.6570484 0.14977184 0.21361773
0.051566333 0.34488899 -0.24947754
-0.63277185 0.15043032 0.26717535
-0.71879721 0.20594543 -0.58905244
-0.61504197 0.14982381 0.31881699
-0.73479235 0.19766864 -0.53398663
1.4735744 0.59112692 0.49527508
-0.74599612 0.19024894 -0.47672686
1.4735744 0.59112692 0.49527508
-0.16457961 0.29136145 -0.17720892
1.4735744 0.59112692 0.49527508
-0.76018429 0.17715111 -0.36156765
-0.68490815 0.11723894 0.51824373
-0.77826059 0.16858625 -0.30842406
-30.168716 -6.4209538 1.582159
-0.78377229 0.16244304 -0.25153288
1.4735744 0.59112692 0.49527508
-0.75592381 0.16275683 -0.18500762
1.4735744 0.59112692 0.49527508
-0.76048744 0.15692282 -0.12929119
1.4735744 0.59112692 0.49527508
1.4735744 0.59112692 0.49527508
1.4735744 0.59112692 0.49527508
-0.55494899 0.18808851 0.029343117
-7.4307485 -1.4750894 1.8722615
0.17569296 0.38417858 -0.34513789
-0.70586222 0.15976706 0.049420651
0.0071257651 0.35316771 -0.40670666
-0.67202061 0.16192877 0.10857354
0.13294531 0.3699353 -0.28730434
-0.67939299 0.1559017 0.15965939
0.10899736 0.36233753 -0.25929761
-0.66416836 0.15452096 0.21336462
0.062965795 0.3509686 -0.24271372
-0.65352589 0.15228128 0.26558161
-0.73253685 0.20995271 -0.59464645
-0.62215972 0.15442199 0.31882927
-0.73076516 0.20480242 -0.53094804
1.4735744 0.59112692 0.49527508
-0.76724154 0.19293433 -0.4848887
-0.63594484 0.14283317 0.41802621
-0.17105217 0.29496431 -0.17905574
-0.64993012 0.13549829 0.46774673
-0.78915936 0.17836791 -0.37160486
-0.69402963 0.12154797 0.51884997
-0.80004555 0.17111698 -0.31515419
-25.511055 -5.3102188 1.4281226
-0.79262257 0.16735935 -0.25345567
-65.460129 -14.184871 4.3988914
-0.75539494 0.16934717 -0.18389276
-6.1814122 -1.1147211 1.1255459
-0.76752657 0.16207901 -0.13033552
1.4735744 0.59112692 0.49527508
1.4735744 0.59112692 0.49527508
1.4735744 0.59112692 0.49527508
-0.3187362 0.24023858 0.084282666
-7.3512931 -1.4309539 1.8612773
1.4735744 0.59112692 0.49527508
-0.71871424 0.16359851 0.047590863
0.085603327 0.36993724 -0.357584
-0.68876213 0.164868 0.10631286
0.11160609 0.37037411 -0.29895028
-0.68843544 0.16036093 0.1589746
0.11164175 0.36674047 -0.2570504
-0.66738957 0.16008919 0.21362658
0.042830572 0.35170025 -0.25244933
-0.65284628 0.15860546 0.26630649
-0.74095464 0.21493679 -0.5976088
-0.62341017 0.16025975 0.31933644
-0.73388076 0.21067455 -0.53124428
-0.62599343 0.15537113 0.36926633
-0.77582556 0.19794926 -0.48750573
-0.63329047 0.14952454 0.41867852
-0.17569195 0.29892421 -0.18015145
-0.6511957 0.14140606 0.46825999
-0.79420102 0.18404219 -0.37246433
-0.69727719 0.1271579 0.51939541
-0.80698019 0.17646715 -0.31658477
-34.057755 -7.0759883 1.7314241
-0.79772258 0.17301005 -0.25413948
-30.31389 -6.3336887 2.3557067
-0.76238167 0.17452693 -0.18507083
-7.2529292 -1.3281196 1.2154464
-0.78403294 0.16548371 -0.1340183
-7.2013845 -1.3348242 1.4187905
-0.29356131 0.2541104 0.046948005
-7.0369158 -1.3161104 1.6061062
-0.31980836 0.24524373 0.084717512
1.4735744 0.59112692 0.49527508
0.12416047 0.38380349 -0.37680238
-0.72963649 0.16786832 0.046159919
0.08984755 0.37463224 -0.35413343
-0.7113061 0.16677058 0.10301894
0.066284657 0.36711541 -0.32454887
-0.69164979 0.16601008 0.15919764
0.11256742 0.37084579 -0.25576118
-0.67059696 0.16567206 0.21389011
0.063034818 0.35917801 -0.24110943
-0.64824831 0.16570428 0.2674498
-0.77065307 0.21641004 -0.61106199
-0.62855154 0.16530982 0.31951758
-0.79255968 0.20714319 -0.55735505
-0.63114035 0.16041681 0.36954087
-0.80794024 0.1989626 -0.50039119
-0.63844407 0.15457955 0.419047
-0.17301312 0.3041814 -0.17825475
-0.65636003 0.14650032 0.46872509
-0.878492 0.17574295 -0.40361291
-0.69855303 0.13319522 0.51992017
-0.8566426 0.17420566 -0.33320731
-25.73457 -5.200932 1.4478723
-0.82340163 0.17495474 -0.26160628
1.4735744 0.59112692 0.49527508
-0.76181769 0.18112504 -0.18395457
-7.3028574 -1.3136052 1.22126
-0.79295301 0.17038554 -0.13558149
-7.0723963 -1.2813612 1.4065866
-0.29460457 0.25904751 0.04737718
1.4735744 0.59112692 0.49527508
-0.31319809 0.25170875 0.086905554
1.4735744 0.59112692 0.49527508
0.083363578 0.38156849 -0.40230179
-0.73669904 0.17292431 0.045518529
0.051845565 0.37281108 -0.3766028
-0.71838027 0.17175633 0.10250919
0.050043419 0.36865994 -0.3331773
-0.70843852 0.16904473 0.1573175
0.10483198 0.37356466 -0.25925395
-0.67768306 0.17050758 0.21364546
0.058698863 0.36256981 -0.242596
-0.65533412 0.17046037 0.26733732
-0.77729058 0.22183196 -0.61313683
-0.62977219 0.17116526 0.3200269
1.4735744 0.59112692 0.49527508
-0.63040435 0.16667193 0.37016699
1.4735744 0.59112692 0.49527508
-0.64554459 0.1592603 0.41934776
-0.17580277 0.3084805 -0.17860068
-0.64975965 0.15403888 0.46933627
1.4735744 0.59112692 0.49527508
-0.7056849 0.13801444 0.52051365
1.4735744 0.59112692 0.49527508
-25.734686 -5.122014 1.4538995
1.4735744 0.59112692 0.49527508
-30.350967 -6.1569805 2.3710723
-0.77254963 0.18567333 -0.18627211
-6.153964 -1.0421324 1.1277001
-0.79617095 0.17637348 -0.13555793
1.4735744 0.59112692 0.49527508
-0.30135956 0.26292855 0.046358708
-7.1146693 -1.2836683 1.6190917
-0.31423768 0.25669831 0.08733955
1.4735744 0.59112692 0.49527508
0.065780565 0.38350779 -0.41267666
-0.74390841 0.17878985 0.044947881
0.064455509 0.37934148 -0.36792147
-0.73334414 0.17608851 0.10068512
0.067975476 0.37604496 -0.32182461
-0.72538453 0.17293593 0.15551223
0.10394406 0.37788892 -0.25887758
-0.69660103 0.17388394 0.21194367
0.057781875 0.36703756 -0.24220715
-0.65865695 0.17675543 0.26770982
1.4735744 0.59112692 0.49527508
-0.63308132 0.17737269 0.32043824
1.4735744 0.59112692 0.49527508
-0.63763291 0.1720967 0.37039304
-1.8785809 0.035586983 -0.96409023
-0.64690661 0.16589588 0.41992527
-0.17321047 0.31429374 -0.17665505
-0.65308422 0.1602878 0.46989125
-2.4704304 -0.081098229 -1.008111
-0.7031666 0.14563462 0.52106065
1.4735744 0.59112692 0.49527508
1.4735744 0.59112692 0.49527508
1.4735744 0.59112692 0.49527508
-6.3425441 -1.0407292 0.95780128
-0.77588725 0.19240484 -0.18622889
-6.1744609 -1.021588 1.1310718
-0.81092894 0.18112487 -0.13862522
-7.1684256 -1.2491547 1.4201362
-0.29295608 0.2702418 0.049255166
-7.0891428 -1.250181 1.617359
-0.30771294 0.26372641 0.089577094
1.4735744 0.59112692 0.49527508
0.08333838 0.39012164 -0.4005028
-0.54836804 0.22100297 0.08538115
0.043343887 0.38030869 -0.38000658
-0.75589567 0.17830059 0.097419083
0.036304757 0.37535936 -0.3394095
-0.73245466 0.17797664 0.15514731
0.10316671 0.38173491 -0.25854266
-0.71926528 0.17587364 0.20967802
0.056978598 0.37101114 -0.24186109
-0.67744112 0.17933097 0.26635596
-1.4678369 0.12663993 -0.94990444
-0.64013922 0.18210447 0.32046366
-1.6389877 0.091908753 -0.94555676
-0.64470005 0.17682508 0.37055883
-1.8750379 0.045867383 -0.96090573
-0.64809966 0.17179754 0.42043921
-0.17780465 0.31830174 -0.17774564
-0.64251286 0.16855404 0.47054398
-2.4523501 -0.066652149 -0.99941552
-0.70635062 0.15129232 0.52161145
-2.7447326 -0.12540826 -0.99860001
-6.3937912 -1.0124295 0.77617377
1.4735744 0.59112692 0.49527508
1.4735744 0.59112692 0.49527508
-0.77527094 0.19902372 -0.18510985
-7.3243589 -1.2386001 1.2283816
-0.81602019 0.18683863 -0.13912222
1.4735744 0.59112692 0.49527508
-0.29586446 0.27483535 0.049203221
-7.0725994 -1.22189 1.6166278
-0.31832159 0.26696327 0.087826729
-0.57581037 0.15201473 0.81409198
2.4412925 2.8965595 -0.69229728
4.2759886 7.1561046 -0.017417286
2.4979913 3.0288489 -0.68590093
4.2645879 7.1218662 0.15050377
2.5729072 3.2043524 -0.69323951
4.2791309 7.1484022 0.31594825
2.616303 3.3042731 -0.65889734
4.2819276 7.1474714 0.48141527
2.6829178 3.4593024 -0.64262903
4.2824254 7.1411738 0.64675456
2.7660954 3.6533723 -0.63328725
4.2790508 7.1258426 0.81155986
2.8424675 3.8308427 -0.6087274
4.2804499 7.1215978 0.97805262
2.940182 4.0585098 -0.5906716
4.2803383 7.1138759 1.1433231
1.9365733 1.6767799 0.18515965
4.2771411 7.0989642 1.3080655
1.9457853 1.6972522 0.20880759
4.2802219 7.0985684 1.4764394
1.9647541 1.7407361 0.22809045
4.2747579 7.0783539 1.6411769
1.973666 1.7604021 0.25407749
4.2724538 7.0654488 1.8076771
3.3043797 4.896194 -0.28260538
4.2669678 7.0450869 1.9746032
3.4351048 5.1989346 -0.21769884
4.1827078 6.8426595 2.0943236
3.6209321 5.630641 -0.15547039
1.4793097 0.59357142 0.49536741
3.9925239 6.497786 -0.11700208
1.4793097 0.59357142 0.49536741
2.4519129 2.9057577 -0.6984247
4.2866712 7.1341534 -0.016599512
2.5026393 3.022881 -0.684385
4.2696848 7.0870709 0.15163191
2.5772777 3.1964567 -0.6910429
4.2882643 7.1227245 0.3161211
2.6230917 3.3013599 -0.6590293
4.2910876 7.1217761 0.48112333
2.6879196 3.4510248 -0.64070576
4.2923951 7.117312 0.64604038
2.7738004 3.6500657 -0.63343722
4.2866416 7.0964937 0.81016189
2.8491504 3.8238223 -0.6076867
4.2896557 7.095932 0.97636473
2.9482012 4.0529776 -0.59028697
4.2903609 7.0900669 1.1413538
1.9400783 1.6773797 0.18459591
4.2840157 7.0679045 1.304769
1.9493546 1.6978368 0.20828773
4.2887321 7.0712013 1.4730875
1.9676795 1.7394803 0.22803362
4.2840624 7.0528779 1.6376408
1.975107 1.7555079 0.25476786
4.2794352 7.0346365 1.8025856
3.3169556 4.8950906 -0.2834768
4.2825646 7.034133 1.9734459
3.4500489 5.201139 -0.21905786
4.2048135 6.8480029 2.0971994
3.6370289 5.6323771 -0.1566675
4.1331472 6.6761861 2.216929
4.0109 6.4985657 -0.11805883
1.4793097 0.59357142 0.49536741
2.4482229 2.87784 -0.68566734
4.2974591 7.1034045 -0.015277345
2.5198889 3.0432637 -0.69596761
4.2811451 7.0581703 0.1523028
2.5865195 3.1964769 -0.69274622
4.3014588 7.0974107 0.31617382
2.6312275 3.2978396 -0.65919006
4.3035212 7.0946083 0.48076147
2.6972651 3.4490283 -0.64156377
4.3024621 7.0846343 0.64508694
2.7815459 3.6425889 -0.63233143
4.2982841 7.0675106 0.80878294
2.8581841 3.8178358 -0.60728002
4.3005481 7.0651302 0.97433603
2.9579494 4.0466671 -0.58993948
4.2996964 7.0556464 1.1384059
1.9449017 1.6795069 0.18350989
4.2965269 7.040843 1.3020866
1.9550264 1.7017411 0.20682499
4.2989359 7.0387268 1.4691173
1.9727294 1.7415566 0.22712477
4.295073 7.0223026 1.633394
1.9833302 1.7647942 0.25245169
4.2920437 7.0077591 1.798522
3.3286183 4.8857465 -0.28308079
4.2968225 7.0109062 1.9697461
3.4650323 5.1968141 -0.21962085
4.2310867 6.8536096 2.1004608
3.6494439 5.6183505 -0.15602966
4.1440706 6.6482592 2.2110207
4.0268126 6.4851742 -0.11784938
1.4793097 0.59357142 0.49536741
2.4634967 2.8967898 -0.6969642
4.3050523 7.0718007 -0.01376972
2.5256772 3.038748 -0.69528109
4.28863 7.0265746 0.15320973
2.5876427 3.1798952 -0.68668842
4.3106775 7.069397 0.31636882
2.6399186 3.2981112 -0.6607976
4.3143649 7.070241 0.48043692
2.7056544 3.4474182 -0.64240521
4.3125114 7.0584369 0.64430213
2.7942238 3.6494534 -0.63636059
4.3067198 7.037673 0.80735719
2.8698847 3.8210585 -0.60985434
4.3090229 7.0353127 0.97234929
2.9680319 4.0443659 -0.59068185
4.3106008 7.0313358 1.1364083
1.9463072 1.6746749 0.18447191
4.3074408 7.0165744 1.2996733
1.9588051 1.7022152 0.20629913
4.308301 7.0108676 1.4657375
1.9735205 1.7348119 0.22832175
4.3044562 6.9945178 1.6295094
1.9865236 1.7634014 0.25238758
4.2990718 6.9746623 1.7930373
3.3434913 4.8878684 -0.28463107
4.3063178 6.9832773 1.9648526
3.4792218 5.1949458 -0.22043899
4.2544088 6.8583083 2.1033018
3.6640353 5.6141539 -0.15654306
4.1542654 6.624804 2.2061563
4.0422354 6.4762764 -0.11798456
1.4793097 0.59357142 0.49536741
2.4749768 2.9055514 -0.70311457
4.3128014 7.037889 -0.012143612
2.5354683 3.0424199 -0.69869089
4.2994828 6.9999838 0.15379919
2.5993474 3.1868343 -0.6914857
4.3184595 7.0354004 0.31669047
2.6453762 3.2896125 -0.65875977
4.3237939 7.0398808 0.48009926
2.7175064 3.4524653 -0.6460107
4.322751 7.029911 0.64344925
2.8006823 3.6404097 -0.63460565
4.3153238 7.0055194 0.8058176
2.8821566 3.8240001 -0.61244303
4.316051 6.999527 0.96993148
2.9771631 4.0382543 -0.59032822
4.3200932 7.0010557 1.1338401
1.9525034 1.6804003 0.18236613
4.3193645 6.9917989 1.2972337
1.9604461 1.6972446 0.20716517
4.3178535 6.980701 1.4620579
1.9783828 1.7369466 0.22741453
4.3132257 6.9626288 1.6249592
1.9899123 1.761912 0.2523185
4.3134584 6.9554515 1.7904521
3.3614964 4.89504 -0.28718698
4.3160114 6.9533629 1.959522
3.4965878 5.1981268 -0.22212499
4.277307 6.8588772 2.1052001
3.680279 5.6113524 -0.15731476
4.1685805 6.6079388 2.2032745
4.0594392 6.4687147 -0.11833529
1.4793097 0.59357142 0.49536741
2.4803796 2.9011827 -0.70238149
4.3200779 7.0063019 -0.010640647
2.539062 3.0328424 -0.6955561
4.3050504 6.9647446 0.15489615
2.6055181 3.1820838 -0.69085389
4.325767 7.0037351 0.31698194
2.6577811 3.2983682 -0.66402936
4.3319535 7.010015 0.47978163
2.7214077 3.4404681 -0.64272881
4.3317299 7.0018759 0.64261645
2.8096213 3.638521 -0.63541919
4.3259001 6.9811668 0.80465174
2.8923831 3.8236434 -0.61382353
4.3266549 6.9751887 0.96834493
2.9841478 4.0288553 -0.58885449
4.3299365 6.9749103 1.1316549
1.9546676 1.6773269 0.18281594
4.3259902 6.9584389 1.2936766
1.9642222 1.6976992 0.2066375
4.3293695 6.9582644 1.4594941
1.9846411 1.7427289 0.22566976
4.3231339 6.936646 1.6213889
1.9946806 1.7640973 0.25150335
4.3209968 6.9241548 1.7853276
3.3708644 4.8844161 -0.28644353
4.3252277 6.9257321 1.954623
3.509202 5.1925387 -0.22238609
4.2999191 6.8616385 2.1075716
3.6932547 5.6034317 -0.1573634
4.1944742 6.619761 2.2084394
4.0756106 6.4615502 -0.11867003
4.1587834 6.5329576 2.3477421
2.4897637 2.9049032 -0.70595753
4.325048 6.9669466 -0.0085870959
2.5539966 3.0481632 -0.70469296
4.3123546 6.9308572 0.15587075
2.6091392 3.170372 -0.68713325
4.3332086 6.9697618 0.31729883
2.6669517 3.2983515 -0.66565377
4.3427129 6.9833107 0.4794293
2.7325299 3.4437284 -0.64565152
4.3400474 6.969697 0.64167404
2.8167813 3.6311786 -0.63431305
4.337471 6.9563084 0.80345953
2.9039299 3.8247566 -0.61581844
4.3349805 6.9430633 0.96619213
2.9924467 4.0209432 -0.58795017
4.3399496 6.9464469 1.1292621
1.9546559 1.6688617 0.18479376
4.3376451 6.9336514 1.2912308
1.9681916 1.6980571 0.20610484
4.3402677 6.931704 1.4563562
1.9871688 1.7394592 0.22602023
4.3332181 6.9083624 1.6174726
1.9988678 1.7643796 0.25105745
4.3303051 6.8941588 1.7805424
3.3913324 4.896883 -0.28999549
4.3338132 6.8940353 1.9488753
3.527415 5.1974187 -0.22436412
4.3228784 6.8620515 2.1094568
3.7102933 5.6023512 -0.15838073
4.2167268 6.6204276 2.2105637
4.0903358 6.4484363 -0.11845866
1.4793097 0.59357142 0.49536741
2.5137365 2.9416358 -0.72673702
4.331449 6.9312544 -0.0068235435
2.5609212 3.0450473 -0.70484078
4.3227677 6.9042673 0.15645163
2.6141942 3.1620326 -0.68496388
4.3462305 6.9485559 0.3172558
2.6723659 3.2897921 -0.66362244
4.3516951 6.9529519 0.479083
2.7406385 3.4400799 -0.64582455
4.3506722 6.9429893 0.64085412
2.8269815 3.6307404 -0.63578683
4.3439779 6.9205155 0.80173492
2.9162698 3.8275721 -0.61841744
4.3472624 6.9200315 0.96471095
3.0038369 4.020031 -0.58927131
4.3481746 6.9143524 1.1265041
1.9648294 1.6833671 0.18012953
4.3483558 6.907043 1.2885542
1.9705822 1.6948489 0.20650284
4.3502135 6.9033318 1.4529411
1.9936695 1.7451108 0.22426836
4.3431602 6.8800755 1.613553
1.9990506 1.7556803 0.25248438
4.3427234 6.8713217 1.7772158
3.4070513 4.8984647 -0.2915785
4.3462996 6.8712473 1.9451807
3.5408142 5.1913886 -0.22465
4.3401995 6.8499861 2.1081395
3.724906 5.5957756 -0.15869245
4.2422357 6.6280565 2.2146888
4.108273 6.4425483 -0.1190147
4.1811938 6.4870753 2.3376856
2.5049555 2.9039841 -0.7088173
4.33849 6.8973961 -0.005206259
2.5678365 3.0419111 -0.70499051
4.3355265 6.8831263 0.15673554
2.6214604 3.1587372 -0.68512124
4.3541865 6.9164066 0.317516
2.6792572 3.2846229 -0.66305619
4.3605223 6.922596 0.4787339
2.7502675 3.4398367 -0.64737666
4.3603344 6.9144564 0.63998938
2.8379633 3.6319964 -0.63790852
4.3561039 6.8974648 0.80062449
2.927078 3.8268597 -0.61981881
4.356945 6.8915391 0.96282178
3.0113034 4.0103164 -0.5878166
4.3578911 6.8858886 1.1241055
1.9647942 1.6748905 0.18210581
4.356451 6.8750076 1.2851927
1.9705663 1.6863135 0.20829816
4.3591876 6.8731561 1.4492493
1.9937861 1.73647 0.22587799
4.3521333 6.8499904 1.6093112
2.005645 1.761318 0.25091177
4.3501024 6.8377466 1.7716944
3.4211724 4.8963923 -0.29250762
4.3578568 6.846664 1.9410713
3.5566406 5.1907334 -0.22578885
4.3574724 6.8378754 2.1068172
3.741955 5.5945864 -0.15971956
4.2637591 6.6267996 2.2162986
4.1245556 6.4329786 -0.11919419
4.189404 6.458003 2.3307393
2.5217392 2.9260912 -0.72184658
4.3489923 6.8772464 -0.0045537315
2.5716932 3.0341294 -0.70267099
4.3402014 6.8502436 0.15774988
2.6286173 3.1574945 -0.68603712
4.3631253 6.89254 0.31761694
2.6875176 3.2849414 -0.6646679
4.3695045 6.8987017 0.47841579
2.7574108 3.436573 -0.6475336
4.368494 6.8887434 0.63921165
2.8456101 3.6285031 -0.63807642
4.36342 6.8699579 0.79929519
2.9360209 3.8248713 -0.6205985
4.3651214 6.8658643 0.96111298
3.0231097 4.013371 -0.59022987
4.3702645 6.8692865 1.1228378
1.9699261 1.6789231 0.18051216
4.3638477 6.8475986 1.2823318
1.9725428 1.6832722 0.20870329
4.3666358 6.8457932 1.4458771
2.000735 1.7440434 0.22371136
4.3620667 6.8280883 1.6063926
2.0110652 1.7653213 0.24972115
4.3617134 6.8194718 1.76914
3.4346435 4.8967447 -0.29373777
4.3654337 6.819531 1.9361855
3.5692658 5.1871424 -0.22633116
4.3651028 6.8108416 2.1014328
3.7556512 5.5905118 -0.16023944
4.2904925 6.6422586 2.2224619
4.1387954 6.424284 -0.11933416
4.1969995 6.4333816 2.3249292
2.5216269 2.9082556 -0.71424973
4.3607373 6.8542738 -0.0038079862
2.5823288 3.0392802 -0.70691365
4.3493857 6.8218274 0.15842021
2.6351104 3.1524768 -0.68542331
4.3699474 6.8585873 0.31792372
2.6959186 3.2831237 -0.6655699
4.3797278 6.8719811 0.47805148
2.7662723 3.4345615 -0.64840227
4.3787246 6.8620253 0.63838291
2.8519192 3.6193473 -0.63633448
4.374475 6.8450732 0.79809046
2.9436829 3.8171453 -0.61960274
4.37537 6.8391805 0.95935291
3.0321186 4.0071096 -0.58989245
4.3788962 6.8390021 1.1202521
1.9706414 1.6722087 0.18197644
4.3741469 6.8209844 1.2796464
1.9772973 1.6853659 0.20770091
4.3786607 6.8228116 1.4432738
2.0048711 1.7442925 0.22321673
4.3732657 6.8033729 1.6031028
2.0177267 1.7709059 0.24814497
4.3663015 6.780561 1.7625185
3.4479573 4.8927879 -0.29434541
4.3750882 6.7913871 1.9312482
3.5851092 5.1863894 -0.2274787
4.3748136 6.7827926 2.0959969
3.7710555 5.5856085 -0.16080126
4.3129206 6.6425924 2.2245598
4.1525187 6.4092007 -0.11894943
4.202476 6.3990927 2.3163395
2.5333576 2.9167461 -0.72041976
4.3698549 6.8258572 -0.0026320443
2.5869615 3.031096 -0.70461547
4.358428 6.7934108 0.15908773
2.6438756 3.1524756 -0.68713754
4.3799663 6.8319011 0.31802225
2.7058635 3.2846665 -0.66793853
4.3915062 6.8488808 0.47767377
2.7751327 3.4325218 -0.64927369
4.3879766 6.8334875 0.63750964
2.86291 3.6205103 -0.63846439
4.3811822 6.8111277 0.79644418
2.9529009 3.8128693 -0.61981106
4.3837962 6.808877 0.95732117
3.0387032 3.9955845 -0.58788913
4.3873734 6.8087225 1.1176641
1.9761615 1.6760424 0.18037231
4.3851552 6.796164 1.2771851
1.9804435 1.6839068 0.20762981
4.3872099 6.7926388 1.439574
2.005743 1.7374222 0.2244039
4.3809848 6.7715001 1.5985336
2.0211358 1.7693244 0.24806796
4.377377 6.7559166 1.7588148
3.4604378 4.8869996 -0.2946274
4.3854332 6.7650118 1.9267188
3.6017962 5.1873789 -0.22891407
4.3868718 6.7600274 2.0919259
3.7872851 5.582459 -0.16160485
4.3386831 6.6498508 2.2286558
4.1703601 6.403121 -0.11952491
4.2283273 6.4083099 2.3214035
3.1024966 -4.5015092 -3.2943816
1.4761908 0.5925926 0.49512839
1.4761908 0.5925926 0.49512839
1.4761908 0.5925926 0.49512839
1.4761908 0.5925926 0.49512839
1.4761908 0.5925926 0.49512839
1.4761908 0.5925926 0.49512839
1.4761908 0.5925926 0.49512839
1.4761908 0.5925926 0.49512839
1.4761908 0.5925926 0.49512839
1.4761908 0.5925926 0.49512839
1.4761908 0.5925926 0.49512839
1.4761908 0.5925926 0.49512839
1.4761908 0.5925926 0.49512839
1.4761908 0.5925926 0.49512839
1.4761908 0.5925926 0.49512839
1.4761908 0.5925926 0.49512839
1.4761908 0.5925926 0.49512839
1.4761908 0.5925926 0.49512839
1.4761908 0.5925926 0.49512839
1.4761908 0.5925926 0.49512839
1.4761908 0.5925926 0.49512839
1.4761908 0.5925926 0.49512839
1.4761908 0.5925926 0.49512839
1.4761908 0.5925926 0.49512839
1.4761908 0.5925926 0.49512839
1.4761908 0.5925926 0.49512839
1.4761908 0.5925926 0.49512839
1.4761908 0.5925926 0.49512839
1.4761908 0.5925926 0.49512839
1.4761908 0.5925926 0.49512839
1.4761908 0.5925926 0.49512839
3.0868778 -4.5042539 -3.2939043
1.4761908 0.5925926 0.49512839
1.4761908 0.5925926 0.49512839
1.4761908 0.5925926 0.49512839
1.4761908 0.5925926 0.49512839
1.4761908 0.5925926 0.49512839
1.4761908 0.5925926 0.49512839
1.4761908 0.5925926 0.49512839
1.4761908 0.5925926 0.49512839
1.4761908 0.5925926 0.49512839
1.4761908 0.5925926 0.49512839
1.4761908 0.5925926 0.49512839
1.4761908 0.5925926 0.49512839
1.4761908 0.5925926 0.49512839
1.4761908 0.5925926 0.49512839
1.4761908 0.5925926 0.49512839
1.4761908 0.5925926 0.49512839
1.4761908 0.5925926 0.49512839
1.4761908 0.5925926 0.49512839
1.4761908 0.5925926 0.49512839
1.4761908 0.5925926 0.49512839
1.4761908 0.5925926 0.49512839
1.4761908 0.5925926 0.49512839
1.4761908 0.5925926 0.49512839
1.4761908 0.5925926 0.49512839
1.4761908 0.5925926 0.49512839
1.4761908 0.5925926 0.49512839
1.4761908 0.5925926 0.49512839
1.4761908 0.5925926 0.49512839
1.4761908 0.5925926 0.49512839
1.4761908 0.5925926 0.49512839
1.4761908 0.5925926 0.49512839
3.0674152 -4.5012527 -3.2888792
1.4761908 0.5925926 0.49512839
1.4761908 0.5925926 0.49512839
1.4761908 0.5925926 0.49512839
1.4761908 0.5925926 0.49512839
1.4761908 0.5925926 0.49512839
1.4761908 0.5925926 0.49512839
1.4761908 0.5925926 0.49512839
1.4761908 0.5925926 0.49512839
1.4761908 0.5925926 0.49512839
1.4761908 0.5925926 0.49512839
1.4761908 0.5925926 0.49512839
1.4761908 0.5925926 0.49512839
1.4761908 0.5925926 0.49512839
1.4761908 0.5925926 0.49512839
1.4761908 0.5925926 0.49512839
1.4761908 0.5925926 0.49512839
1.4761908 0.5925926 0.49512839
1.4761908 0.5925926 0.49512839
1.4761908 0.5925926 0.49512839
1.4761908 0.5925926 0.49512839
1.4761908 0.5925926 0.49512839
1.4761908 0.5925926 0.49512839
1.4761908 0.5925926 0.49512839
1.4761908 0.5925926 0.49512839
1.4761908 0.5925926 0.49512839
1.4761908 0.5925926 0.49512839
1.4761908 0.5925926 0.49512839
1.4761908 0.5925926 0.49512839
1.4761908 0.5925926 0.49512839
1.4761908 0.5925926 0.49512839
1.4761908 0.5925926 0.49512839
3.0518088 -4.5038977 -3.2883921
1.4761908 0.5925926 0.49512839
1.4761908 0.5925926 0.49512839
1.4761908 0.5925926 0.49512839
1.4761908 0.5925926 0.49512839
1.4761908 0.5925926 0.49512839
1.4761908 0.5925926 0.49512839
1.4761908 0.5925926 0.49512839
1.4761908 0.5925926 0.49512839
1.4761908 0.5925926 0.49512839
1.4761908 0.5925926 0.49512839
1.4761908 0.5925926 0.49512839
1.4761908 0.5925926 0.49512839
1.4761908 0.5925926 0.49512839
1.4761908 0.5925926 0.49512839
1.4761908 0.5925926 0.49512839
1.4761908 0.5925926 0.49512839
1.4761908 0.5925926 0.49512839
1.4761908 0.5925926 0.49512839
1.4761908 0.5925926 0.49512839
1.4761908 0.5925926 0.49512839
1.4761908 0.5925926 0.49512839
1.4761908 0.5925926 0.49512839
1.4761908 0.5925926 0.49512839
1.4761908 0.5925926 0.49512839
1.4761908 0.5925926 0.49512839
1.4761908 0.5925926 0.49512839
1.4761908 0.5925926 0.49512839
1.4761908 0.5925926 0.49512839
1.4761908 0.5925926 0.49512839
1.4761908 0.5925926 0.49512839
1.4761908 0.5925926 0.49512839
3.0395401 -4.517416 -3.2960017
1.4761908 0.5925926 0.49512839
1.4761908 0.5925926 0.49512839
1.4761908 0.5925926 0.49512839
1.4761908 0.5925926 0.49512839
1.4761908 0.5925926 0.49512839
1.4761908 0.5925926 0.49512839
1.4761908 0.5925926 0.49512839
1.4761908 0.5925926 0.49512839
1.4761908 0.5925926 0.49512839
1.4761908 0.5925926 0.49512839
1.4761908 0.5925926 0.49512839
1.4761908 0.5925926 0.49512839
1.4761908 0.5925926 0.49512839
1.4761908 0.5925926 0.49512839
1.4761908 0.5925926 0.49512839
1.4761908 0.5925926 0.49512839
1.4761908 0.5925926 0.49512839
1.4761908 0.5925926 0.49512839
1.4761908 0.5925926 0.49512839
1.4761908 0.5925926 0.49512839
1.4761908 0.5925926 0.49512839
1.4761908 0.5925926 0.49512839
1.4761908 0.5925926 0.49512839
1.4761908 0.5925926 0.49512839
1.4761908 0.5925926 0.49512839
1.4761908 0.5925926 0.49512839
1.4761908 0.5925926 0.49512839
1.4761908 0.5925926 0.49512839
1.4761908 0.5925926 0.49512839
1.4761908 0.5925926 0.49512839
1.4761908 0.5925926 0.49512839
3.0201123 -4.5074916 -3.2862484
1.4761908 0.5925926 0.49512839
1.4761908 0.5925926 0.49512839
1.4761908 0.5925926 0.49512839
1.4761908 0.5925926 0.49512839
1.4761908 0.5925926 0.49512839
1.4761908 0.5925926 0.49512839
1.4761908 0.5925926 0.49512839
1.4761908 0.5925926 0.49512839
1.4761908 0.5925926 0.49512839
1.4761908 0.5925926 0.49512839
1.4761908 0.5925926 0.49512839
1.4761908 0.5925926 0.49512839
1.4761908 0.5925926 0.49512839
1.4761908 0.5925926 0.49512839
1.4761908 0.5925926 0.49512839
1.4761908 0.5925926 0.49512839
1.4761908 0.5925926 0.49512839
1.4761908 0.5925926 0.49512839
1.4761908 0.5925926 0.49512839
1.4761908 0.5925926 0.49512839
1.4761908 0.5925926 0.49512839
1.4761908 0.5925926 0.49512839
1.4761908 0.5925926 0.49512839
1.4761908 0.5925926 0.49512839
1.4761908 0.5925926 0.49512839
1.4761908 0.5925926 0.49512839
1.4761908 0.5925926 0.49512839
1.4761908 0.5925926 0.49512839
1.4761908 0.5925926 0.49512839
1.4761908 0.5925926 0.49512839
1.4761908 0.5925926 0.49512839
2.9993477 -4.4961925 -3.2753711
1.4761908 0.5925926 0.49512839
1.4761908 0.5925926 0.49512839
1.4761908 0.5925926 0.49512839
1.4761908 0.5925926 0.49512839
1.4761908 0.5925926 0.49512839
1.4761908 0.5925926 0.49512839
1.4761908 0.5925926 0.49512839
1.4761908 0.5925926 0.49512839
1.4761908 0.5925926 0.49512839
1.4761908 0.5925926 0.49512839
1.4761908 0.5925926 0.49512839
1.4761908 0.5925926 0.49512839
1.4761908 0.5925926 0.49512839
1.4761908 0.5925926 0.49512839
1.4761908 0.5925926 0.49512839
1.4761908 0.5925926 0.49512839
1.4761908 0.5925926 0.49512839
1.4761908 0.5925926 0.49512839
