# .PCD v0.7 - Point Cloud Data file format
VERSION 0.7
FIELDS x y z
SIZE 4 4 4
TYPE F F F
COUNT 1 1 1
WIDTH 1523
HEIGHT 1
VIEWPOINT 0 0 0 1 0 0 0
POINTS 1523
DATA ascii
1.6938896 -7.1320038 0.96677792
0.58820343 -6.8630905 0.94006121
0.73695755 -6.8439484 0.93811476
0.94736862 -6.8061066 0.93396485
0.68764496 -6.689209 0.98034155
-0.82086277 -6.0696106 1.1765848
-12.315495 -6.5923691 2.5523243
-1.4577093 -5.9064026 1.2949477
-13.973464 -6.3655472 2.8616419
2.382679 -4.7779999 0.57372582
3.0901756 -4.2786713 0.58575785
2.9114799 -4.0797272 0.46791756
2.4821396 -3.9306793 0.52248204
-12.986872 -4.7991562 2.5381818
3.5712509 -3.6565781 0.39532578
10.957672 -3.1175537 -0.64519107
-12.763312 -4.3610077 2.4899721
-12.808963 -4.2980804 2.4791927
2.6543541 -3.1960907 0.44270051
3.4453316 -3.1388168 0.28626502
3.7295227 -3.1009216 0.28414643
-5.4987745 -3.5098877 1.4379984
-5.3764753 -3.4907303 1.4272958
2.5424385 -3.025383 0.41972983
2.8819389 -2.886673 0.40515721
3.4569817 -2.8452072 0.29366457
-12.07713 -3.7201233 2.3114266
-5.2194271 -3.4090271 1.4050056
-4.6503153 -3.2652664 1.3548127
3.0002899 -2.7072067 0.38325131
3.5319786 -2.6605835 0.26774466
-11.981903 -3.6974564 2.3053622
-4.5462589 -3.1362762 1.3305627
-3.8890066 -3.0588837 1.1936914
1.0364418 -2.6902771 0.72493088
-10.124269 -3.1660995 2.1849108
-3.0021791 -2.6964417 1.2173253
-2.3442678 -2.7544708 0.97646487
-1.0086966 -2.5043335 0.93563521
2.3532372 -2.3599472 0.42376244
-3.3853025 -2.5026779 1.1943179
-3.2438917 -2.4797668 1.186967
3.4681244 -2.0757828 0.19399512
3.6617088 -2.1665802 0.17041123
-3.5998821 -2.3221664 1.1699106
-3.4765024 -2.3439331 1.1701628
-3.229147 -2.2778625 1.1528941
-0.26031971 -2.0585632 0.70003378
0.88628006 -2.0460815 0.62984908
3.9895058 -1.8433151 0.14986622
-5.2230606 -2.2988968 1.4867669
-3.8858566 -2.1580734 1.1502062
-3.6326571 -2.1687317 1.1452285
-2.886466 -2.0547638 1.1072088
-0.19599247 -1.9937592 0.77465928
0.82814026 -1.8549576 0.52443802
2.6768036 -1.7751465 0.3317405
3.7716141 -1.7208099 0.1398164
3.8498344 -1.6204987 0.11561692
-3.5864134 -1.9056778 1.100258
-2.9103346 -1.9612122 1.092147
-1.2716589 -1.7424011 0.81280577
-1.0443983 -1.7596283 0.81548369
-0.90769482 -1.7628098 0.81599629
-0.66018963 -1.7998962 0.80905211
-0.20333576 -1.6484985 0.80227864
-0.068060875 -1.8025665 0.69947588
0.80766296 -1.6767349 0.49952996
-11.769201 -2.3384781 2.2096047
-11.612024 -2.3458862 2.1700649
-10.963251 -2.2999115 2.1654487
-3.1612196 -1.8165665 1.074226
-0.9668951 -1.6714096 0.80124629
-0.66153622 -1.6376877 0.74397194
-0.25762272 -1.4828491 0.70126641
-0.1850729 -1.6251526 0.71906102
2.457283 -1.3591843 0.28658593
2.5919724 -1.387764 0.28424847
2.8509636 -1.3413925 0.26651967
-22.366848 -3.0308228 3.5961094
-12.743219 -2.2754669 2.3767056
-12.626884 -2.2486496 2.3670163
-11.646447 -2.2382202 2.2576685
-10.955602 -2.1825333 2.14148
-10.776546 -2.1495438 2.1298122
-0.32574368 -1.317131 0.73272574
-16.890427 -2.286293 2.8780093
-15.11635 -2.2578506 2.6625023
-12.205436 -1.9934998 2.2411232
-12.091385 -2.0081024 2.2405658
-8.4626455 -1.751152 1.8676273
-0.10136127 -1.1996918 0.77239382
1.4525909 -0.99038696 0.48199904
-16.979115 -2.1484833 2.8659935
-8.0565577 -1.433403 1.6023709
-10.683297 -1.4822769 1.9922148
-22.476833 -2.0677338 3.537477
-14.260729 -1.5855255 2.5430717
-8.6486816 -1.2537308 1.7699114
-8.4591351 -1.0798035 1.7311636
-7.9708052 -1.0801773 1.7225643
2.8512726 6.8263397 -2.691257
-8.3214779 -0.90403748 1.6882478
-12.284213 -1.1227417 2.1214967
-0.10035419 -0.16996765 0.53654253
-16.316856 -1.1457825 2.8037362
-14.328245 -0.97161865 2.5335002
-13.866985 -0.99558258 2.4014983
-8.3572474 -0.62892914 1.6383601
1.750164 0.11919403 0.43537199
-16.345375 -0.96688843 2.7675972
-14.170845 -0.71808624 2.4718318
-13.439293 -0.6619339 2.3098164
-12.932453 -0.58430481 2.2327795
-12.260468 -0.40373993 2.1917553
-10.962223 -0.27941895 1.9825317
-10.50837 -0.22058105 1.8246194
-9.038168 -0.1333847 1.6733652
-16.972809 -0.55780029 2.7552934
-13.134981 -0.24029541 2.1656675
-8.1147881 0.12757111 1.5735437
-17.732048 -0.32371521 2.7910662
-17.135189 -0.28461456 2.7171025
-16.979885 -0.35871887 2.718369
-14.478672 -0.10401917 2.4716654
-14.414028 -0.15052032 2.4756813
-12.733255 -0.067199707 2.1154804
-7.757843 0.27393341 1.5361525
-7.6213598 0.33492279 1.5208465
-1.021018 6.1879807 -1.8463534
-14.235977 -0.02167511 2.331902
-10.220911 0.22884369 1.7676789
-8.632596 0.4657135 1.6645786
-7.0319557 0.64400482 1.3554698
-5.576993 8.0990219 -0.5982312
-4.3600826 0.77996063 1.0366827
-17.645214 -0.060012817 2.7341528
-14.72522 0.28155518 2.4228272
-13.459398 0.21641541 2.3562155
-14.913681 0.45604706 2.3982282
-14.728545 0.3756485 2.4040174
-14.652084 0.49803925 2.3695469
-13.341162 0.49967194 2.171586
-13.116676 0.57169342 2.143539
-11.65597 0.68836975 1.9360429
-4.0555668 1.2261734 0.94280112
-14.967669 0.52792358 2.3978157
-14.828059 0.51688385 2.3980441
-14.591416 0.58454895 2.3665652
-13.341648 0.62387085 2.1460066
-11.622353 0.89952087 1.8913137
-5.6628246 1.2609863 1.292359
-5.4670525 1.2386169 1.1206981
-5.3490143 1.3076706 1.1914016
-4.9757519 1.3381882 1.0941106
-4.7480898 1.3083191 1.0747315
1.213028 1.7891998 0.31600916
-15.216992 0.68054962 2.3798919
-13.917113 0.90720367 2.2252035
-11.25216 1.1207581 1.8127948
6.5895844 16.203705 -2.6121268
5.7943573 15.492722 -2.4514575
-5.6361427 1.5138855 1.239082
-5.4828358 1.4571533 1.0771705
-5.3261166 1.4641037 1.1316544
-5.1264524 1.5133438 1.10949
1.8315811 2.0461502 0.14439833
8.8717308 2.5240402 -0.66668212
-15.209365 0.95887756 2.3267365
-5.8547659 1.5857239 1.2852761
-5.4536724 1.6759109 1.1632153
-5.3865681 1.6756592 1.160462
-4.084796 1.7480164 0.9729234
-3.7277832 1.7366867 1.0029365
2.5703011 2.3406601 0.0068184137
4.5600471 2.3532562 -0.097710967
9.8607635 2.838974 -0.90019691
10.147736 2.7636032 -0.95443451
10.180882 2.8986816 -0.96637213
20.346363 7.1303482 -3.374754
-17.314589 1.0306168 2.7234869
-12.65699 1.3604507 2.0662827
-12.465742 1.374855 2.0507174
-10.859465 1.451004 1.9049221
-8.4142761 1.7662048 1.5832831
-7.0415325 1.8016815 1.3205339
0.70818329 1.1624603 -0.52003753
-5.7144585 1.9493027 1.246019
-5.4349585 1.9611053 1.142294
-0.12113285 2.3113022 0.38488448
1.0870094 2.403244 0.21524251
3.4757271 2.4845505 -0.055254817
5.54496 6.3518982 -1.4008168
-12.65431 1.5386887 2.0323672
-11.044086 1.6412354 1.8903753
-10.726311 1.7498016 1.8349553
-10.541895 1.7463379 1.8256541
-8.8109217 1.901886 1.5661112
-8.4832277 1.8679962 1.5998307
-8.3588705 1.9481125 1.5423318
-7.0638609 1.8647614 1.3080341
-5.8141909 1.989502 1.2462541
1.3612366 2.6168365 0.27522719
8.7947655 3.1233978 -0.81786764
10.216766 3.1862259 -0.92049468
-16.304815 1.5146332 2.4390244
-12.64115 1.735405 1.9914232
-12.540606 1.835762 1.9607512
-12.37034 1.8553391 1.9310189
-11.205236 1.7865219 1.8755208
-10.963628 1.8358841 1.8382188
-10.606263 1.9664688 1.7960736
-6.9426298 2.2426529 1.2270509
-5.7619019 2.3333969 1.2229077
-4.9878263 2.3102951 0.98311675
-3.7161474 2.4224396 0.86002743
0.073383331 2.7716064 0.30421174
3.4056435 2.9383545 -0.11821258
3.9754715 2.9291382 -0.11422098
8.4262009 3.3370209 -0.75410068
8.8872375 3.253212 -0.83294046
10.245007 3.3259277 -0.93321431
11.637836 3.542572 -1.1930934
-16.460258 1.7439804 2.5206461
-14.557215 1.8910599 2.3232145
-12.64687 1.9465561 1.9404107
-12.567291 1.9247208 1.94622
-12.342076 1.9283676 1.932408
-8.7663918 2.1383972 1.5137597
-8.3549891 2.2945175 1.4674617
-8.2588615 2.3458099 1.4534613
-5.9520655 2.4824677 1.1999203
-5.7943411 2.4521713 1.199505
-4.9253244 2.4250488 0.95832121
-4.6491976 2.621521 0.91147292
0.22128296 2.8729248 0.28632987
3.1650047 3.1338959 -0.1465534
3.5332718 3.1904907 -0.15228689
4.6283989 3.1951828 -0.21037471
8.6433411 3.5438156 -0.6877147
-16.628735 1.9200974 2.5193691
-5.7864189 2.593277 1.1697866
6.869503 3.5616226 -0.55493486
9.4677162 3.7106934 -0.97374928
9.5236626 3.7927017 -0.88505733
10.081844 3.795784 -1.0450836
10.391125 3.9099197 -1.0561665
-5.8854303 2.9122238 1.1078197
-5.4225016 2.8143616 1.0731441
-5.1906462 2.8513641 0.95236027
-5.1116638 2.8928299 0.94233143
-4.8790293 2.9379807 0.97106469
-3.41819 3.1045685 0.83251441
1.9740829 3.5006714 0.14655745
4.8190079 3.6439972 -0.26993883
8.0596619 3.7919006 -0.6566242
9.7877159 3.9886703 -0.99338377
10.422981 4.0313644 -1.0673009
10.867771 4.1241302 -1.0205294
-12.415751 2.6295853 1.9602982
-12.131632 2.5058517 1.9724895
-7.1694498 3.0302963 1.240132
-7.1201715 3.0000916 1.2392355
-5.847271 2.9686279 1.0361243
-5.4085608 3.1342239 0.92126954
-0.67171383 3.5166168 0.41141379
6.5537491 4.0176163 -0.61314046
10.620209 4.2126846 -1.0568756
10.710648 4.2223206 -1.0165068
-6.3483295 3.3066025 1.1076208
-5.3988056 3.1884003 0.99507058
0.64173508 3.664444 0.16949904
3.6924629 3.8474197 -0.24222314
4.1100006 3.8763199 -0.27882183
4.1714211 3.9180679 -0.28698623
6.1501236 4.189743 -0.45670879
6.3436241 4.1212158 -0.44644487
-16.118706 0.89447784 1.8230749
-28.418381 1.8854523 4.0935817
-12.796562 2.8777695 1.9937545
-12.655306 2.9222565 1.9752933
-6.6654148 3.4329529 1.1231867
-6.5016155 3.4615707 1.100762
-6.2594738 3.3373032 1.0932347
-5.3252573 3.5597458 0.94906771
3.5407982 4.0616226 -0.11060846
8.3773079 4.5694427 -0.88433135
-28.639668 1.9708786 4.0084853
-27.937984 1.9863968 4.0247536
-6.8187761 3.5455856 1.1231667
-6.4226427 3.6299973 1.107226
-1.9301176 4.0115509 0.54126608
6.0108337 4.6082764 -0.4457444
6.4011841 4.5460663 -0.64349449
7.4086418 4.6660309 -0.70584953
10.44025 4.831459 -1.0818092
15.607456 5.1195831 -1.8839175
-28.333405 2.1368561 4.0323853
-27.740978 2.2751465 3.8615217
-27.192001 2.3476257 3.7980218
-25.932392 2.4019623 3.7391105
-25.588634 2.4677811 3.6913862
-25.407717 2.3557587 3.6974854
-12.284159 3.4042435 1.8431855
-6.4319363 3.7774124 1.122686
-6.2973995 3.8241882 1.0073076
-2.1612673 4.0760727 0.48437321
-0.34385204 4.3464279 0.26053298
5.4083672 4.6740341 -0.37255132
5.7340355 4.772522 -0.47149646
6.1607971 4.7849045 -0.50430429
7.6382866 4.7675018 -0.71486485
9.6288605 5.0002747 -1.0854219
9.9680786 4.9316406 -1.1474754
-30.02663 2.2454834 4.289711
-29.450933 2.3588943 4.1858368
-29.028809 2.4276505 4.1299028
-28.511452 2.4398117 4.0945158
-12.261822 3.6316986 1.7898813
-12.121136 3.6903 1.7681814
-6.4466143 4.0255966 1.0734879
-6.3320694 4.0934525 1.115698
-6.1818104 4.0516129 0.95409214
-5.8954859 4.0966797 0.93099415
-2.5468702 4.2883911 0.47079384
-1.9304743 4.4279785 0.41347611
-0.674119 4.4512787 0.24356949
2.7789917 4.6355667 -0.047661185
5.5610123 4.8095016 -0.48497522
5.8706894 4.9459 -0.49385536
6.1106606 4.8541718 -0.54976451
6.3005676 4.8781586 -0.5524019
7.255249 5.0532913 -0.62595308
-28.320511 2.6366119 4.0332241
-25.69622 2.7174683 3.649055
-12.002351 3.717865 1.7548758
-6.5338163 4.1905899 1.0335571
-6.352582 4.2167206 1.0891715
-6.1085787 4.2856293 1.0405594
-5.929698 4.2473068 1.0417401
-2.7716894 4.4845657 0.55348933
-2.4902334 4.5473709 0.53425133
-2.1143026 4.4360809 0.41390622
-2.0559072 4.521019 0.42952454
-0.60617733 4.6024323 0.21603978
0.45589828 4.695755 0.19321454
5.8818855 5.0633011 -0.50990236
6.3557816 5.1698608 -0.59291399
6.6653519 5.1119843 -0.74801958
7.3366356 5.1267319 -0.76010239
8.1800728 5.3212662 -0.77051628
10.231361 5.4843063 -1.1313928
10.421101 5.345787 -1.1190516
-25.428707 3.0948257 3.4749837
-6.278573 4.5103607 1.0202423
-4.9132643 4.4382019 0.90973008
-2.6539507 4.6126556 0.52604163
-1.9267492 4.7937622 0.39187825
5.3026428 5.2916641 -0.49013078
8.5808945 5.4022827 -0.90881979
10.429291 5.6938095 -1.1734208
-6.1275587 4.6092606 0.96945441
-5.8032551 4.5747528 0.97356141
-0.97506237 5.0847015 0.33910859
10.503506 5.7780914 -1.1880215
11.207588 5.8647079 -1.2348167
13.450554 6.1002426 -1.5912167
13.579258 6.0209045 -1.5877544
13.818314 6.1148834 -1.5998446
14.036777 6.1741791 -1.6084872
-5.928627 4.8417969 0.90947068
-5.7736244 4.8843918 0.89350045
0.52246094 5.3421631 0.076711774
3.4055634 5.4833603 -0.32010448
10.100986 6.0743027 -1.2130083
10.30777 6.044136 -1.2134429
10.355335 6.1057739 -1.2207509
12.565254 6.1852646 -1.4244069
13.29496 6.2060699 -1.5763487
13.613102 6.218399 -1.5943533
13.862614 6.3102036 -1.6152633
-5.866827 5.090416 0.85171378
-1.6588144 5.3325348 0.36523926
-1.4587984 5.3475647 0.35722363
1.2952156 5.5981522 0.030170083
-4.7545166 4.1706543 -0.059641242
2.5893517 5.6094818 -0.14062631
2.7927704 5.6627121 -0.15218151
6.446537 5.8925247 -0.5873574
7.1748505 5.9348907 -0.85569394
9.1904755 6.140625 -0.96991026
10.013821 6.1726837 -1.217033
10.280914 6.2235794 -1.1755282
10.372471 6.2380219 -1.1810516
11.21088 6.3622589 -1.2806736
12.397282 6.3827515 -1.452372
12.743156 6.4265442 -1.4459411
13.076153 6.4273453 -1.6084443
13.409149 6.3966751 -1.6124495
21.685551 7.0802307 -2.7067647
-26.101435 3.7869797 3.5632758
-25.963333 3.7402191 3.559176
-23.976818 4.0118027 3.2908492
-11.66517 4.8745422 1.7556621
-6.4823198 5.24617 0.93449986
-6.2800999 5.1877899 0.92331612
4.5636826 5.976944 -0.40432775
12.024143 6.6158524 -1.4665061
12.088711 6.6507797 -1.4702259
12.364506 6.5122528 -1.4625627
12.550274 6.6061707 -1.4728249
12.858379 6.5682373 -1.6148146
15.925373 6.8847961 -2.0543165
16.050087 6.923851 -2.0606694
20.271141 7.2124329 -2.5299816
20.484604 7.198143 -2.5391808
20.68782 7.1385574 -2.6107421
20.893723 7.1602554 -2.6114683
21.083805 7.1627197 -2.6211982
21.277802 7.1716003 -2.6314759
21.429306 7.1461105 -2.6958017
-26.631449 3.95504 3.5817537
-24.688274 4.0472565 3.3507767
-24.129982 4.0331497 3.3006282
-12.752592 4.9922714 1.8913704
-12.134744 4.9532242 1.7737051
-6.1583605 5.4310684 0.87617171
-8.9543343 7.0718002 -2.0552506
-5.6930532 5.373024 0.80006754
-0.58578587 5.8663559 0.28089631
0.66732025 5.8754349 -0.019886851
1.0338821 6.0090332 -0.057166457
1.3105621 5.9294815 -0.0063356161
1.765686 6.0959091 -0.03111589
2.4486847 5.9844742 -0.26715887
4.6277084 6.3040314 -0.45345294
5.1627617 6.3141785 -0.51602113
7.3800926 6.3976135 -0.94352853
7.8721542 6.5206604 -0.95714438
7.9661903 6.4737396 -0.9520489
8.207695 6.4152374 -0.94588053
8.556942 6.3997955 -1.0124153
8.8484535 6.5226974 -1.0102419
10.592457 6.652153 -1.3051919
10.814095 6.6520691 -1.2026144
12.679138 6.7233124 -1.6229583
16.141438 6.9571915 -2.0656109
16.291603 7.0025406 -2.0732079
18.709538 7.2404251 -2.4371147
18.873192 7.245079 -2.4441137
-34.704502 3.5358353 4.7923875
-26.45513 4.2259293 3.506639
-11.723791 9.3743286 -3.2459764
-6.1207733 5.5712509 0.84254706
0.51111221 6.0205154 -0.045113444
1.1086235 6.1748276 -0.058934093
3.0425415 6.2566376 -0.20485675
7.6250305 6.5446625 -0.88004076
7.7997169 6.6986618 -0.9005276
8.0085297 6.6414032 -0.92379391
8.1867371 6.6635284 -0.89570653
9.041378 6.6401062 -1.0233368
9.172554 6.6833344 -1.0396935
9.3957024 6.7781143 -1.1305388
16.27 7.1573792 -2.081532
-24.005318 4.4849014 3.1871824
1.0636711 6.4010391 -0.12481821
1.2637939 6.4526062 -0.096425414
1.6056976 6.4416046 -0.092540145
2.3290253 6.5187454 -0.11200941
2.592453 6.5090866 -0.28631437
4.2623291 6.6686478 -0.45392692
4.8642387 6.5728607 -0.44604194
6.741024 6.8034363 -0.84100306
7.144043 6.8449554 -0.79011071
7.5819511 6.8922882 -0.88667214
7.9091148 6.903511 -0.85410178
8.2035446 6.9260864 -0.89709532
8.7702789 6.9077682 -1.0514933
9.2082291 7.0182419 -1.1539763
10.601456 7.0109634 -1.23567
16.93203 7.5185165 -2.2135067
17.025635 7.499588 -2.1501012
17.719128 7.6477661 -2.2325811
17.867004 7.6642838 -2.2415428
18.078514 7.668663 -2.2530475
18.304031 7.6456451 -2.2633686
18.439339 7.6467056 -2.2706614
18.612682 7.6534119 -2.2804236
-35.318905 3.9321671 4.7855706
-27.233383 4.5325699 3.7509594
-26.945562 4.4941025 3.7271552
1.2205505 6.5383987 -0.10342062
-3.6146727 5.6024017 0.10395491
1.830719 6.6686935 -0.13578546
2.4480095 6.6739655 -0.14127243
3.1330223 6.7840881 -0.43473279
4.8247185 6.8769226 -0.48784578
5.5843811 6.953598 -0.70545757
6.5068741 6.994606 -0.86462986
7.576973 7.0912247 -0.91059196
7.7680473 7.042717 -0.90537989
13.936691 7.5725937 -1.8056616
14.081821 7.5674286 -1.8098119
14.31736 7.5435257 -1.8154532
14.489979 7.5453796 -1.8210741
14.62719 7.5319061 -1.8244551
16.85479 7.7050476 -2.1915064
17.060818 7.7253113 -2.1660972
17.232849 7.7319489 -2.1529565
17.463028 7.7104187 -2.1512361
17.672771 7.716301 -2.162137
17.876049 7.7277756 -2.1731858
-27.838959 4.5963211 3.8048491
-24.361967 4.9551697 3.345386
1.2548828 6.6972275 -0.080349803
2.5930634 6.9134827 -0.35180509
2.8265724 6.8412628 -0.38991868
3.0755882 6.9051666 -0.30809581
-6.5047131 0.62073517 0.15028393
3.3687782 7.5549927 -1.3767852
3.745224 6.9293289 -0.45436323
3.916935 7.0457306 -0.52009618
4.1233063 6.9780045 -0.49971426
4.2919998 6.8987045 -0.53858173
4.6372757 7.041626 -0.51515424
4.8105698 7.0096054 -0.54271019
4.8955536 7.0219498 -0.50834358
5.7516975 7.1548996 -0.73201931
7.1127357 7.1437149 -0.81337965
15.95245 7.8582535 -2.0600471
-27.810093 4.861557 3.7472062
-10.43434 6.166153 1.382548
-0.27392483 6.7899933 0.091839433
9.0910759 6.9677048 -2.0549979
-6.885581 1.1173096 0.4204241
2.2009697 7.09095 -0.21494853
2.3541908 7.0861359 -0.21541011
3.0756989 7.1441727 -0.33952463
-0.3506403 1.9123764 0.027744412
6.1562386 15.237221 -2.2765174
3.7508354 7.1183548 -0.43887603
3.9490662 7.0981369 -0.48076808
4.1648979 7.2154999 -0.56047952
4.2866821 7.214798 -0.58542526
4.7750244 7.1675491 -0.56930482
4.9372635 7.2009735 -0.64159143
1.2599411 6.7197952 -0.84563291
6.0482826 6.9769592 -1.1139482
12.084492 7.7390289 -1.5708455
12.192837 7.7246094 -1.5719305
13.213692 7.916687 -1.7959341
13.438263 7.9279099 -1.8069342
13.550869 7.9348755 -1.8126048
15.044586 7.9241714 -2.0031681
-34.658154 4.6305618 4.5674996
-28.043728 4.9666595 3.7515182
-27.719044 5.1342545 3.7829227
-11.054087 6.3711395 1.5069014
-10.4004 6.2225571 1.4125654
-1.1689959 6.9311523 0.26872742
1.1954079 7.105484 -0.20866048
1.6608887 7.1743469 -0.22619522
1.6867981 7.1689072 -0.2254318
2.4734497 7.280777 -0.20575607
2.9731712 7.3442459 -0.38473451
3.1577988 7.2602921 -0.36051595
3.7026405 7.3996201 -0.39438713
4.3632202 7.4085617 -0.61490381
4.5138054 7.3286209 -0.55764854
4.9536362 7.4085312 -0.67159593
13.268917 7.9490662 -1.8010694
-34.669075 4.6758194 4.6768804
-29.557848 5.1982117 3.994277
-27.926218 5.215126 3.6871176
-27.686193 5.1942673 3.6645675
-11.132723 6.3705215 1.5134646
3.3780251 6.8075027 -1.3081659
3.1937294 7.4938583 -0.40033615
3.6200333 7.5037308 -0.41019332
4.014389 7.485527 -0.57606733
7.3637314 7.8018417 -1.0113026
7.4885178 7.8339386 -1.0173103
7.6312408 7.8626785 -1.0232881
9.9466782 8.0313797 -1.3832189
10.050858 8.0565948 -1.3899542
10.258236 8.111412 -1.4040071
10.923401 8.1603546 -1.4370772
11.071804 8.154274 -1.4427329
11.264076 8.1377182 -1.4491888
11.43346 8.1222382 -1.4548482
-30.413155 5.3562012 4.0500541
-29.571217 5.2952194 3.9788933
-28.36084 5.4428329 3.6891084
-27.704094 5.4854431 3.6066403
-24.559614 5.7780609 3.3262343
-4.9089975 7.1736221 0.5995785
-0.99392796 7.4650574 0.14885294
7.9268951 8.1402435 -1.0622545
8.0532227 8.1520386 -1.0661823
8.2288399 8.1465225 -1.0690192
8.668232 8.1977539 -1.066039
8.8478622 8.2110443 -1.0728873
9.690052 8.2542877 -1.3490907
9.8294182 8.2813034 -1.3522099
10.077202 8.2450485 -1.3725532
10.243633 8.2801971 -1.3727146
-29.207058 5.5812454 3.7579298
-28.474094 5.5112839 3.6878419
-10.415414 6.8275299 1.3469492
6.5755997 8.230896 -0.90438187
6.8786125 8.2720032 -0.91967809
9.2796555 8.3832245 -1.2668043
9.4440536 8.3416443 -1.3003334
9.632515 8.3132477 -1.3143278
9.8146667 8.3093872 -1.3264743
10.026413 8.3086777 -1.3642727
-29.284584 5.6647491 3.7497168
-13.11409 6.9542923 1.618374
-1.131669 7.7635345 0.089173436
5.6889458 8.3250122 -0.77442396
5.8755531 8.3855667 -0.78572023
6.2507248 8.3089066 -0.90522087
6.439106 8.296051 -0.90912855
6.6601067 8.2914658 -0.91547096
6.8018761 8.2895584 -0.91968262
7.0772781 8.3644714 -0.92050517
7.2758369 8.3520508 -0.921018
7.4484634 8.3611832 -0.92669594
7.5839767 8.345871 -0.92853677
-28.897812 5.9571838 3.8298454
-27.73015 6.0951691 3.6083422
-13.149086 7.064209 1.6058575
3.481781 8.317627 -0.54405725
4.889389 8.506134 -0.77843463
5.0511551 8.5169678 -0.7876929
5.5282707 8.4978409 -0.8053633
5.6660042 8.4950638 -0.79861224
5.814106 8.4691391 -0.79821098
5.9860458 8.4505386 -0.78334296
-28.778473 6.376564 3.691205
-28.628624 6.4345627 3.71066
-27.592379 6.4716949 3.5290642
-27.242035 6.0535126 2.0117154
-13.653133 7.6878891 0.95159447
-27.352352 6.7082291 3.454329
-28.282299 6.8443222 3.6944609
-27.368351 6.9179688 3.4657502
-13.65168 8.6891174 0.04767859
-27.104153 7.0853806 3.5001111
-35.016781 7.0912476 4.4897656
-36.816383 7.192215 4.6883831
-36.972157 7.3396225 4.6767154
-35.119354 7.961525 4.3205495
-33.785645 8.4640503 4.1486578
-34.327145 8.6875229 4.1776328
-37.189793 9.2261124 4.5928159
-37.348953 9.4327621 4.5703363
-37.505821 9.5174026 4.5730672
-37.361523 9.9990005 4.454556
-37.293182 9.8863602 4.4689603
-17.662903 11.386932 1.8620893
-9.1224699 0.56941986 -0.29095256
-28.406975 3.6085205 1.8178564
2.0197945 6.6628265 -2.2023964
-1.4885683 -8.1678696 1.4968091
-6.2715178 -7.7844315 2.1489048
-6.1925449 -7.8136902 2.1516552
-1.041297 -7.4443436 1.3796054
0.41717148 -6.5922775 1.1378013
-12.348692 -7.3001938 2.8312702
-1.7628126 -6.017807 1.5024883
-32.877438 21.503242 -5.6652436
-7.9533949 -6.0081711 2.2002807
-13.638937 -6.3861084 3.0671687
-8.0705137 -5.908493 2.1853981
-7.1406498 -5.2980576 2.0923247
-6.8742113 -4.9892807 1.9909931
-6.7641325 -4.8100586 1.9903976
-1.0160189 -4.0373383 1.1615216
11.5737 -3.1507034 -0.39281213
-3.4570894 -4.0704269 1.4581009
-0.55699444 -3.8139191 1.2033273
-15.195382 -4.5960922 2.9454494
11.643124 -2.5976028 -0.44645965
11.704861 -2.6095734 -0.44574344
11.421791 -2.5310669 -0.45126903
11.501141 -2.5627823 -0.44879472
-4.1163235 -3.3127365 1.6261231
-9.9942532 -3.7036438 2.2703776
-4.1271725 -3.1797333 1.6021219
-1.5285444 -2.9940033 1.2146999
-15.87941 -3.7968063 3.0821972
-1.7426291 -2.8536072 1.2073632
-1.6192217 -2.8765869 1.2027651
-1.7519083 -2.5485229 1.1935402
-11.467543 -3.231842 2.3681617
-10.741129 -3.1817627 2.4390984
-6.6732731 -2.7212677 1.7699472
-5.5433683 -2.7681122 1.5825258
-3.411087 -2.649147 1.4925414
-2.8217478 -2.4520798 1.4028617
-2.1381063 -2.3906174 1.1852943
-1.851985 -2.3805771 1.1705753
-1.4863577 -2.4858704 1.1716009
-7.2538214 -2.6459198 1.9047319
-7.1911163 -2.6685562 1.9029018
-3.5450296 -2.4225311 1.4535633
-1.5823107 -2.3067627 1.2179061
-1.4931707 -2.322113 1.1450621
-0.55139828 -2.1411133 1.0760466
-0.26617527 -2.0643234 0.86808455
-0.13661861 -2.0460968 0.85844386
1.7356224 -2.0139084 0.74358428
-10.808726 -2.7672729 2.2559128
-10.090748 -2.5723495 2.2974811
-7.2450085 -2.433342 1.8698331
-3.251668 -2.0617065 1.3825823
-2.6091166 -2.1995468 1.3543288
-1.2164297 -1.9116211 1.0300361
-0.83947086 -1.9083786 1.0053359
-0.40043736 -1.9640198 0.9961859
-0.18660831 -1.9909363 0.94483054
2.8330498 -1.7193298 0.61459744
2.9553032 -1.648674 0.59979022
10.159698 -1.2580566 -0.34884632
-6.879591 -2.2873764 1.8144547
-6.6030312 -2.2128601 1.6765414
-6.4484587 -2.199173 1.6664721
-3.2616577 -1.9321671 1.35913
-1.4231558 -1.827446 1.0609843
-1.315587 -1.81427 1.1275531
-0.99498653 -1.742836 1.0251375
-0.90009975 -1.7728958 1.0249172
-0.68584538 -1.8132477 0.9811269
1.345089 -1.7039871 0.69469082
2.908535 -1.5932617 0.59288371
-23.083464 -3.1877975 4.0148697
-10.898002 -2.3792038 2.3351784
-7.9087353 1.5020828 -0.17062891
-7.3150873 -2.1092072 1.8241359
-7.1921568 -2.1025009 1.8121692
-6.1751871 -1.9621429 1.7511832
-3.4711113 -1.828331 1.3439785
-2.1209726 -1.6172028 1.2426296
-1.8520994 -1.6294937 1.0755178
-1.6598082 -1.5975571 1.0751163
-1.4730024 -1.5840759 1.089914
-0.72999096 -1.657814 1.0789829
-0.019343376 -1.5347061 0.82112086
1.3578033 -1.4029541 0.701563
1.5296631 -1.4099426 0.67615855
1.6452522 -1.4767914 0.65940773
10.661488 -0.8112793 -0.61104095
-22.63179 -2.9990234 3.9323506
-16.242359 -2.5712509 3.1107712
-6.2162886 -1.7945709 1.7191554
-3.2916985 -1.5362244 1.2875015
-2.8978319 -1.5069504 1.2752401
-2.0657263 -1.4435501 1.2102681
-1.8493814 -1.4034958 1.1324035
-1.647624 -1.4843521 1.0754963
-1.458024 -1.4307709 1.0629178
-15.972337 -2.310463 2.9062457
-6.1863546 -1.5850067 1.6412841
1.8270035 -1.0202026 0.60863316
11.460941 -0.30073547 -0.6890043
-6.7201538 -1.3286209 1.7629243
-5.9362612 -1.2630844 1.6081001
-1.1091204 -1.0071106 0.96588767
10.889565 -0.17169952 -0.67413867
11.538509 -0.038124084 -0.62754881
-15.16235 -1.8855362 2.7712588
-6.2382298 -1.1579132 1.5945965
-6.1528549 -1.170784 1.5950662
-5.0762472 -0.98485565 1.5623776
-3.1445074 -0.97317505 1.2958251
2.8885384 -0.46574402 0.48612416
-22.631168 -2.1399918 3.8201132
-16.417233 -1.6392593 2.9144378
-19.600767 13.136635 -4.9015279
-15.346649 -1.8358154 1.5465003
-6.3969202 -0.93273926 1.6746885
-6.1974125 -0.88274384 1.555926
-22.637598 -2.0206299 3.8054953
-16.389082 -1.508873 2.885057
-14.475163 -1.358345 2.7376723
-1.0493498 -6.7179184 0.13118327
-7.1468925 -0.85359192 1.7590324
-6.9121876 -0.8298645 1.7013956
3.0640221 -0.071502686 0.4277941
-8.153451 -0.64732361 1.9451329
-6.9754801 -0.66068268 1.7158324
-6.6662922 -0.61095428 1.6040784
4.1738586 0.27547455 0.26979411
-8.138278 -0.53129578 1.8105198
-7.2964153 -0.1447525 1.6259004
3.3229866 0.77871704 0.26205981
-12.731525 -0.19311523 2.3756728
-6.8157339 0.19528961 1.5470783
-12.976381 -0.096549988 2.3766489
-12.17815 -0.04145813 2.2881422
-13.495028 0.085762024 2.3838329
-13.313048 0.069763184 2.3720942
-13.213215 0.065628052 2.3647957
-13.003767 0.060012817 2.3494167
-12.818375 0.11322784 2.3147082
-3.6845703 0.88482666 1.0985614
0.43415451 1.1939468 0.58111775
-14.284057 0.31970978 2.5896034
-14.170994 0.20822144 2.6087666
-4.2273169 0.99719238 1.2627398
-4.0814352 1.085022 1.2890006
-13.780713 0.40577698 2.5422435
-4.0208492 1.1391678 1.2505084
-10.911362 0.98294067 1.9939395
-10.330769 0.99390411 2.0922737
-10.098652 1.0087433 2.0221024
-3.7392263 1.3929291 1.1170737
0.093986511 1.7468491 0.72502148
1.5133476 1.7883072 0.41634667
1.5572281 1.772377 0.41937363
8.0628891 2.3017349 -0.4240278
-10.180854 1.0753021 2.0661721
-5.585022 1.4864197 1.3212382
-3.854516 1.6634598 1.1182781
-3.734479 1.5857391 1.1271254
-2.942399 1.58461 0.97707808
7.2713509 2.4686813 -0.39925039
11.385208 2.7870026 -0.87838113
-15.718265 0.97756195 2.6005483
-15.626648 0.88744354 2.6156197
-7.9428329 1.4367218 1.7646509
-5.692029 1.6044617 1.3074743
2.450489 2.3280106 0.32865489
2.7366219 2.2074738 0.34797919
10.48843 2.9166031 -0.7452246
-10.0229 1.5085754 1.960344
-8.1685696 1.7300034 1.7410504
-5.7052927 1.8289413 1.2673384
-5.320756 1.8570175 1.3835121
-0.52776432 2.3394623 0.62213671
2.5695724 2.4233246 0.31308472
-13.451018 1.4178772 2.2934284
-13.33082 1.5308228 2.2610526
-19.432648 12.445992 -2.3271737
-6.671072 1.905899 1.5000688
-6.2227907 2.089119 1.4557124
2.2147179 2.6893158 0.26986039
2.6420212 2.6071854 0.28288281
3.3383064 2.7967148 0.21092713
-26.578644 0.73649597 4.1576586
3.5247459 2.8694763 0.20051539
4.0036125 2.966362 -0.047764182
7.8233604 3.2155533 -0.53279531
11.43792 3.5505524 -0.96368587
-6.4901743 2.5064392 1.3859497
-6.1051531 2.5187912 1.3594486
-4.7911167 2.5968552 1.2846347
2.253006 3.1216431 0.19939959
3.1900826 3.0539017 0.16830695
3.2447166 3.0876389 0.16325104
5.7577934 3.3390579 -0.22580516
7.9777145 3.4587784 -0.42981374
9.4842567 3.618782 -0.63762295
15.117298 3.9090729 -1.4181963
-29.420849 0.88075256 4.4045782
-6.1433382 2.5435028 1.3566843
-4.5173664 2.7491531 1.1654602
-4.4596176 2.8368988 1.2216617
0.13603973 3.1288452 0.47648013
0.65350723 3.1955032 0.55057824
5.3110123 3.5484238 -0.19810188
10.056168 3.8796616 -0.72715199
15.03091 4.1652222 -1.4371361
-15.88413 2.1612167 2.7142634
-4.5067892 2.9240189 1.2110935
-1.0471258 3.1285934 0.72975647
6.5168648 3.7590561 -0.39513004
7.8429909 3.7950516 -0.59971845
7.9960976 3.8225479 -0.47442186
10.96093 4.1233521 -1.0130891
15.209557 4.400322 -1.4573213
-30.423563 1.2671814 4.5238848
-15.188926 2.3752136 2.6104159
-6.2741613 3.040657 1.4098817
3.4223061 1.2839737 -0.98779762
-5.0028038 2.693512 -0.054002166
-4.7314882 3.0674438 1.1877376
-4.6373215 3.0946808 1.1728331
5.9651299 3.9146957 -0.35070026
11.201038 4.3266068 -1.0072333
14.920521 4.5258026 -1.5020789
-12.386615 10.832558 -3.2496686
-9.9445763 10.215569 -3.647521
-24.736004 1.9856339 3.7104912
-15.3365 2.6558685 2.5567536
-6.6281404 3.268219 1.3359843
-6.4399691 3.3075333 1.3249928
-6.2383728 3.2484436 1.2585498
-6.0610609 3.2712402 1.2474467
-14.012885 -0.42362976 1.3321892
0.57500076 3.7812881 0.39825737
0.61726761 3.8107147 0.43366396
0.87427902 3.8443298 0.42622817
3.713253 4.0253296 0.082515359
-8.3996887 4.7775345 0.41799271
5.1242409 4.0438919 -0.1226939
5.3228912 3.9845734 -0.2656039
5.5380173 4.1153717 -0.28664815
10.859539 4.5436096 -0.91134107
11.295776 4.4409409 -1.053871
-28.344149 1.8949738 4.1842294
-28.244312 1.8381882 4.2440357
-25.486584 2.0606842 3.7672729
-24.794147 2.0520935 3.7018299
-24.735998 2.176857 3.6694031
-21.112766 12.624817 -2.5182486
-19.217949 2.4790421 3.1174774
-6.8497972 3.3742752 1.3320156
-6.702035 3.4078293 1.3385512
-0.62985325 3.8783951 0.63632214
-0.56784916 3.9238052 0.62648213
0.91901779 3.9959717 0.39719689
5.3881226 4.1943588 -0.29831779
5.6673737 4.3457489 -0.32260835
6.4754982 4.3918839 -0.34074152
9.8816566 4.6565399 -0.8118211
10.800396 4.7232437 -0.96871436
11.253639 4.7968979 -1.089887
12.029335 4.7134171 -1.1316477
15.63504 5.0540085 -1.5086251
-27.870964 2.1150284 4.2018623
-24.63224 2.329483 3.6266017
-21.866913 2.420433 3.4577751
-3.2092113 3.9197159 0.88366807
-2.9044256 3.9197464 0.86714375
-1.0741186 3.9898224 0.55831254
1.0098419 4.2046814 0.35713875
1.6787949 4.2481613 0.3054601
3.0903893 4.4080276 0.01589644
3.1284561 4.3848038 0.019981503
6.5447197 4.5748291 -0.36561239
7.9364014 4.6927338 -0.52161348
10.82336 4.9324951 -0.99043834
-28.652905 2.1938477 4.2645578
-28.087128 2.3414001 4.1744103
-21.68318 2.761528 3.366919
-20.142229 2.9283676 3.1787276
-19.703619 2.894455 3.031733
-6.2932243 3.8828049 1.3712236
-6.0996237 3.9166107 1.3514239
-3.1008558 4.1012268 0.84243929
-2.1349764 4.1123505 0.81769478
-1.6493692 4.1610107 0.58847773
-1.0606775 4.1883316 0.51861107
-0.9995203 4.128273 0.58939278
4.4281235 4.5645142 -0.091804862
5.568821 4.6907349 -0.37565076
6.517498 4.8159943 -0.42817342
7.6772118 4.8773499 -0.49352109
10.242516 4.9847183 -0.84698069
10.62648 4.9787674 -0.99572313
10.712715 4.9782181 -0.99546587
14.253208 5.30616 -1.5171047
-29.864319 1.2840729 0.7593857
-28.371902 2.5209885 4.1644974
-22.016399 2.9486237 3.3941445
-21.703365 2.9616776 3.3548436
-20.53458 2.9723053 3.2062759
-19.957088 3.129158 3.1195002
-6.8614531 4.0223694 1.342136
-6.3015833 4.0850677 1.1894256
-6.1315584 3.9876175 1.337092
-5.7718687 4.0321045 1.1773773
4.6003838 4.8120041 -0.17399585
6.0508232 4.9456558 -0.28301418
6.3541412 4.943367 -0.44850194
9.9032631 5.1435089 -0.86427176
10.502842 5.2036133 -0.97638881
10.696808 5.225563 -1.0000077
13.260971 5.4873962 -1.3815845
14.801071 5.6014557 -1.5805913
-17.506279 10.946259 -1.7331456
-8.9763222 9.1163025 -2.6867404
-0.16115665 7.1140518 -3.660212
-12.334436 7.9504395 -0.26021659
-17.71998 9.0175858 0.24880326
-25.599562 2.8569183 3.8077693
-20.091356 3.1370239 3.1082654
-6.8937597 4.0987396 1.333614
-22.045883 13.102608 -2.6041079
-6.1802511 4.2775192 1.2737442
-5.9152231 4.202919 1.144446
-5.760457 4.1967773 1.1388394
-2.8632402 4.2095337 -1.0073599
-3.0141764 4.530098 0.74882948
-2.118329 4.4901199 0.73644841
-1.9834223 4.5226059 0.69894755
-1.7961531 4.4781189 0.69124281
-0.75003529 4.6109161 0.48870242
0.44182587 4.7634201 0.44646418
5.7613792 5.1685562 -0.25659549
6.0786133 5.2204895 -0.32773292
6.4164276 5.1756363 -0.48212516
7.1963081 5.2451477 -0.50294149
8.617569 5.3034744 -0.73524654
8.7360268 5.3780289 -0.68580306
8.8414612 5.3668289 -0.68438184
10.158192 5.411438 -0.89410937
10.218056 5.5000076 -0.83898318
13.156731 5.6066132 -1.381297
14.696255 5.8579025 -1.4458686
17.706936 6.0240021 -1.8828453
17.729988 6.0697174 -1.8862768
18.309483 6.0993042 -1.9008647
-15.915228 9.5797806 -1.8414477
-11.384089 8.0561905 -2.1901121
-25.56332 2.9740067 3.7783217
-6.6954556 4.4602203 1.2498008
-13.07872 8.6268463 -0.57731712
-3.1839685 4.7276001 0.80312741
-1.9397898 4.6931152 0.66809618
-1.6833773 4.8313446 0.65438044
5.7788124 5.2443314 -0.26854026
6.6080971 5.4143448 -0.51530778
7.8036575 5.5501099 -0.63282406
8.0381737 5.442421 -0.70302904
9.7310143 5.641777 -0.91752994
10.250458 5.583313 -0.84800065
13.100243 5.817627 -1.4154741
14.489399 5.8737411 -1.594859
16.380749 6.1310959 -1.8598646
17.738743 6.1919556 -1.8942941
-19.855793 3.6921387 2.9614458
-12.233707 4.2797241 1.9383308
-6.7422438 4.5271072 1.2447506
-2.7156038 4.9366302 0.65524161
-2.6377974 4.8555832 0.67084277
-2.0517664 4.8463211 0.61592543
-1.6890478 4.9339218 0.63251364
-0.60733891 4.9957504 0.45366919
-0.23547459 5.0059357 0.40321505
6.9944267 5.6681976 -0.56531942
7.2825661 5.5772705 -0.54724705
9.3767471 5.6800308 -0.92077887
10.131538 5.8596191 -0.88013375
10.26936 5.8677216 -1.04238
10.400799 5.7991333 -1.0360304
12.96109 5.9926224 -1.4117228
16.532093 6.2381821 -1.8700269
-11.406776 10.083023 -3.6484318
-19.967819 3.8792877 2.9869065
-12.163286 4.4023209 1.9042593
-11.918597 4.4191513 2.0203824
-6.1787119 4.8671036 1.2356249
-3.016202 5.0874863 0.72069657
-2.880969 5.1132278 0.71064436
-2.6072092 5.0694046 0.69378769
-2.4317675 5.0974197 0.67105734
-2.3039026 5.2023621 0.67300713
-0.83059406 5.1329346 0.43095744
0.6051712 5.3670959 0.32226527
1.2073631 5.4413986 0.15369523
11.503956 6.189415 -1.1628371
12.991409 6.3069305 -1.3619157
14.21067 6.4109344 -1.4845449
14.632145 6.367485 -1.5997285
14.816036 6.393959 -1.6151997
15.195869 6.418602 -1.6578575
-37.479588 2.7679977 5.2638111
-1.6921988 5.3466263 0.62464535
-0.59425831 5.4052658 0.37234032
-0.38972378 5.376297 0.32939732
1.180912 5.4930267 0.14440167
7.3779297 5.9895859 -0.69321549
11.430531 6.218277 -1.1651021
13.069355 6.3456268 -1.2894038
13.298748 6.3771896 -1.2931563
14.918011 6.5509644 -1.6633686
21.935352 7.1217728 -2.5860538
22.087521 7.122963 -2.610086
-15.017851 9.9319916 -2.1723766
-6.6014013 9.6371231 -3.1049085
-27.341206 3.7063065 3.9877443
10.855019 7.8834991 -2.1486697
-2.8314486 5.4022827 0.64731276
-0.022465706 5.6880112 0.26247752
2.5084534 5.84375 0.043373227
7.4559174 6.1727905 -0.69643652
12.128483 6.5755234 -1.168702
3.8986435 8.3148499 -1.8227757
13.166553 6.7032776 -1.3226544
21.314411 7.2811508 -2.5502295
21.491829 7.230545 -2.5714006
21.628719 7.2113876 -2.5766292
22.13287 7.269722 -2.6045313
22.196712 7.3048477 -2.5890455
-32.112438 1.3160629 0.82260478
-2.5461245 9.1483307 -1.3961338
-25.185442 4.1423187 3.7416434
-12.076138 4.9753571 1.8414885
-6.3277283 5.4184341 1.2285272
-6.1632395 5.4116821 1.1517087
-6.0163136 5.4714584 1.1669427
-5.6105185 5.4497757 1.0775872
0.69944763 5.9262848 0.20766938
1.0055618 5.9625626 0.18683207
1.0762901 6.0694427 0.271752
-9.9065886 0.99479675 0.65955985
3.1479645 6.1241531 -0.18245971
4.2352829 6.2733536 -0.16066158
7.4624023 6.5074005 -0.7449652
7.8399086 6.4824982 -0.62270749
8.166111 6.5152054 -0.73395407
8.4253387 6.4916916 -0.87594855
8.8614693 6.5287018 -0.75155675
11.0042 6.6768036 -1.206282
0.89723206 7.8514481 -1.3096727
-2.1542482 7.4365692 -0.87375295
22.22237 7.4346771 -2.6198516
-26.996532 4.181015 3.7985554
-26.347967 4.2428818 3.714129
-0.56289005 8.2416 -1.6482161
-6.0438004 5.6262817 1.1171247
0.95320511 6.1715164 0.1469065
1.0972404 6.1513748 0.19648945
4.5818024 6.5054245 -0.25430477
7.5017128 6.5760727 -0.767259
7.5287209 6.5827255 -0.74100649
7.8533745 6.7057495 -0.74212372
8.0244637 6.6707306 -0.75949085
8.2131271 6.6683578 -0.77196681
8.3340454 6.6684341 -0.86488974
9.2449074 6.7848663 -0.99253094
9.3791428 6.8316956 -0.87711036
20.254612 7.6492081 -2.2905817
20.485821 7.6440964 -2.3023505
21.527378 7.5929871 -2.4380245
21.704868 7.5993576 -2.4485102
-34.432922 3.7925491 4.8410168
-0.73514748 -4.8865738 0.47698224
-26.885107 4.3307877 3.7547579
8.7941628 21.248543 -2.9217381
7.4428825 18.867157 -2.6888762
0.9836235 6.2710876 0.12694514
1.2354889 6.403656 0.096796632
2.5505981 6.4985428 -0.11026752
3.3657608 6.4586334 -0.23016107
4.4376793 6.7074356 -0.28847539
5.0329323 6.7497711 -0.35217512
6.8341408 6.8060684 -0.60464132
8.0046158 6.926506 -0.78719938
15.509121 7.4911118 -1.8502923
15.690758 7.4565811 -1.8537117
15.906612 7.4769745 -1.8625027
16.09671 7.4920654 -1.8700782
19.42403 7.6786957 -2.2495184
19.658474 7.672905 -2.261251
19.853867 7.6803741 -2.2720289
20.056778 7.6606445 -2.2810974
-34.327934 3.9511566 4.7933087
-27.055229 4.6171799 3.8175502
-26.870785 4.5838089 3.803905
-26.275829 4.6004562 3.7837996
1.0409584 6.4666138 0.087789178
1.2200432 6.5417862 0.1374284
-2.6164713 4.8768311 -0.50176036
2.4519997 6.6215591 -0.10734975
4.2505989 6.8727341 -0.31622159
4.569397 6.840332 -0.31164968
5.0653534 6.7694931 -0.41154754
6.9254723 7.0875702 -0.646752
8.0735893 7.1036987 -0.69310296
12.268024 7.4803238 -1.2655867
16.128777 7.5780792 -1.8777918
18.048088 7.7061539 -2.180223
22.775928 8.2028046 -2.639441
-34.243393 4.1252747 4.7686224
-27.847954 4.658287 3.8983445
-26.998283 4.7316437 3.7866917
-26.1698 4.8757401 3.7078929
-26.089474 4.8199692 3.7125254
1.1924515 6.7134247 0.057593942
6.6660385 6.5493164 -1.7857035
2.4691315 6.89785 -0.13462341
3.0902824 7.0143585 -0.10433376
3.3207474 6.9468002 -0.094634891
4.0766602 7.0295868 -0.29284608
4.7936974 7.0060425 -0.29191005
5.0454559 7.0508652 -0.40229785
7.0833931 7.1747742 -0.58778083
12.314014 7.5065842 -1.2683831
13.531055 7.7388077 -1.6053263
13.680264 7.7610779 -1.6107403
13.873043 7.770195 -1.6161259
14.091702 7.7395935 -1.6188117
15.917358 7.927002 -1.8419431
16.028595 7.934906 -1.8662657
16.273193 7.9284821 -1.8824722
16.470139 7.9329071 -1.8794967
16.653381 7.9120789 -1.9135791
16.878315 7.8827667 -1.9222387
-33.528572 4.4653168 4.6197009
-27.962166 4.864624 3.8675261
-26.421883 4.9577713 3.7152705
-26.290253 4.9159164 3.7111759
-24.120445 5.0999832 3.4395695
-23.948746 5.0799866 3.4263301
1.2291374 6.9571686 0.029205441
3.0539246 7.0914459 -0.13873327
3.2449303 7.1596603 -0.13422048
2.3336372 7.5694504 -1.5510939
4.1872025 7.2034454 -0.34811628
4.5878029 7.316925 -0.3456496
4.7716637 7.2737122 -0.38894689
5.0551033 7.1915817 -0.42572725
6.6452332 7.3629074 -0.68329012
6.7298737 7.3203278 -0.67815816
13.059845 7.9255753 -1.493713
13.296204 7.9362869 -1.5010184
13.494789 7.9182587 -1.504594
13.652599 7.8901367 -1.5061151
14.928482 8.0475616 -1.6693472
15.069065 8.0578613 -1.677493
15.264084 8.0584412 -1.6872939
15.487034 8.0385818 -1.7257704
15.701496 7.9618759 -1.8165866
16.088982 7.9763412 -1.8375717
16.205002 7.9801025 -1.8438386
-33.747849 4.6622849 4.6716256
-27.781673 5.0240479 3.8133144
-23.791845 5.3209457 3.35287
3.0646248 7.2479858 -0.14857805
-5.2335882 1.1762314 0.29869568
3.7591476 7.3546295 -0.17837846
3.9131203 7.3099365 -0.34139717
7.0924988 7.638092 -0.60590708
13.07975 7.9479446 -1.4963976
13.53511 8.1098328 -1.4827222
13.604847 8.1198578 -1.4896539
14.630402 8.2255173 -1.647236
14.7868 8.1789398 -1.6508838
-33.339729 4.921463 4.6983023
10.077011 8.0431595 -1.1369754
10.276001 8.0862427 -1.1469375
10.400745 8.0914383 -1.1505533
10.951275 8.1731796 -1.1746329
11.124023 8.1239853 -1.1728789
11.298359 8.1236725 -1.1773123
12.747509 8.2512665 -1.4807404
12.898182 8.237793 -1.4882926
13.088097 8.2277908 -1.4988028
13.327919 8.2076416 -1.5111181
13.434227 8.2350845 -1.5215822
-29.54734 5.3273773 4.0248184
-4.8770552 7.1730652 0.85337126
6.4000778 7.9572525 -0.6442374
6.502182 8.0176163 -0.65562856
6.7048759 8.0242004 -0.66034496
6.9089737 7.9748611 -0.6562711
7.0321121 7.9267273 -0.65085232
8.9595833 8.2141342 -1.076517
8.9967575 8.2201233 -1.0783809
9.4726944 8.2191925 -1.0778199
9.7034988 8.2136765 -1.0952657
9.8608932 8.2555084 -1.1014537
9.9863319 8.235939 -1.1069838
5.7660522 8.1711044 -0.54955423
5.8403511 8.1494675 -0.5485121
9.3181572 8.4204865 -0.97291076
9.4922981 8.3667984 -1.0137788
9.6756592 8.3567047 -1.0405959
9.9147301 8.3239594 -1.1044439
10.081814 8.3431015 -1.1133288
10.236969 8.3501282 -1.1201466
-10.272135 7.1581192 1.6038624
-10.140677 7.128479 1.5981237
5.7112694 8.346405 -0.57348311
7.0835228 8.3754654 -0.70289934
7.290535 8.3756409 -0.70240915
7.4386215 8.3909149 -0.70271814
-0.13078022 8.3653488 -1.644514
-28.666054 6.0395126 3.8970432
4.8689728 8.5125504 -0.57900894
5.7245026 8.4818878 -0.58310711
5.842617 8.5062103 -0.5958544
6.0048637 8.4910965 -0.57881272
-29.963484 6.0453033 4.0586572
4.9197273 8.5480347 -0.58695209
5.0485535 8.567482 -0.59492099
-28.048853 6.42099 3.7461505
-12.326641 7.8995132 1.7608567
0.92678452 -6.5440903 1.4362899
-11.656038 -6.7686462 2.8984113
-11.176799 -6.5374527 2.8449936
-13.597159 -6.4601669 3.0810347
-8.3876028 -5.925972 2.4215555
-8.2418842 -5.8999863 2.4098783
-10.646341 -5.5997314 2.8024435
-10.584652 -5.3351364 2.7474504
-10.265689 -5.2147369 2.7164512
-1.8039885 -4.6879501 1.609603
-1.9112768 -4.3451767 1.5499607
11.010883 -3.5132217 -0.10869682
12.131908 -3.4194489 -0.37095296
0.048366547 -3.7871475 1.3259708
-6.3853884 -4.0136337 2.1431055
-0.14712238 -3.5493317 1.2935587
0.035812378 -3.5597763 1.288664
2.6724625 -3.2855225 0.91277325
3.502636 -3.1683884 0.74651301
10.838737 -2.661377 -0.20066392
10.960312 -2.7451401 -0.19247091
-3.103507 -3.4462967 1.5877563
-0.58051395 -3.2536469 1.2609178
-0.37764835 -3.3161774 1.2634951
-0.17738628 -3.4082184 1.2712728
2.5356178 -3.0324631 0.87312567
2.8470535 -3.1264267 0.82858527
-5.8762074 -3.4957733 2.0154557
-4.0770674 -3.4580231 1.7841502
-3.2869043 -3.4231262 1.585611
-2.8173914 -3.3687973 1.5705081
-0.52523899 -3.1660385 1.2443143
1.9985962 -2.7194214 0.86165488
2.2515793 -2.6858063 0.89855874
2.7717171 -2.6880264 0.8228389
3.8341789 -2.7190094 0.68445361
-5.4492054 -3.1192322 1.9184815
-4.5097084 -3.1032562 1.7371346
-4.3901958 -3.0561905 1.7237121
2.257618 -2.5974274 0.83204567
3.4079132 -2.4935532 0.71504366
3.990654 -2.3745499 0.63605559
-8.4182377 -3.010849 2.3577232
-4.1891279 -2.7726974 1.6641761
-3.8139687 -2.8594131 1.7681595
-2.6465483 -2.6559982 1.4382421
-1.172574 -2.6006622 1.4169003
2.1533699 -2.367897 0.85362971
2.5043373 -2.2301636 0.86748993
3.2298698 -2.2377396 0.68085778
3.8170815 -2.1967697 0.63229382
3.9091988 -2.2844162 0.66851246
-8.8620405 -2.9294128 2.3755679
-4.1410246 -2.6902008 1.7479726
-3.8777313 -2.5257034 1.6068684
-2.6830111 -2.5880127 1.4261872
2.1901283 -2.2405319 0.78032649
2.4534607 -2.1220779 0.80201066
3.0799828 -2.0370026 0.65496266
3.608593 -2.0928574 0.59179747
-15.280271 -3.149353 3.1547532
-8.2402363 -2.6660309 2.2734761
-3.355238 -2.3927002 1.6640273
-0.59455395 -2.2024994 1.1830817
-0.40900707 -2.1169434 1.2836281
3.6078568 -1.8256378 0.6070534
-11.758133 -2.848877 2.6406898
-5.3331852 -2.3331299 1.775066
-3.7967072 -2.1665573 1.5384465
-3.4741917 -2.1745834 1.527187
-1.3377256 -1.9104156 1.2907077
-0.52134037 -1.9946899 1.2687231
0.61103439 -1.793541 0.97487462
0.85092545 -1.7441864 0.9583894
2.8056488 -1.6607666 0.71525109
2.862606 -1.7560806 0.77633584
3.3954353 -1.7119064 0.59549296
3.8416862 -1.6357803 0.57126248
-16.126413 -2.7923584 3.143362
-8.4707899 -2.3355179 2.2102342
-7.8871832 -2.1788864 2.1321015
-5.4851112 -2.0051804 1.7727338
-4.0903835 -1.9765091 1.6120516
-3.790576 -2.016983 1.5597965
-3.4975023 -1.9453125 1.4863979
-3.1973333 -1.988121 1.582152
0.75365067 -1.6671219 0.94890273
1.1381111 -1.5721817 0.98138916
-7.3496943 -2.0191727 2.0783877
-0.28920078 -1.5398636 1.062833
0.1223526 -1.5527649 1.0601817
-7.7177649 -1.8200073 2.0869079
-5.9088211 -1.6902313 1.8623277
-1.0372858 -1.4362564 1.2013437
-0.92654705 -1.4487152 1.2029535
-0.12204647 -1.3143539 1.0211426
0.97303009 -1.1765747 0.91332495
1.0610352 -1.2691498 0.92961085
1.3764839 -1.2075348 0.92159235
3.1759605 -1.0237885 0.57357037
-12.070033 -2.0125427 2.6750555
-11.343061 -2.017189 2.4741702
-10.855419 -1.8321686 2.4117217
-7.8281155 -1.7663345 2.0851579
0.098716736 -1.0761337 0.97663128
-16.317373 -1.9881897 3.2279501
-12.338717 -1.8121719 2.7576485
-7.3321438 -1.5110245 1.9740778
-7.2573023 -1.5073395 1.9703723
-7.0778332 -1.4417343 1.949967
-13.250185 8.0007782 -0.87732732
-7.1124372 -1.1259918 1.92861
-3.1477985 -0.90557861 1.3762494
-11.9027 7.6258392 -0.98406541
-4.4357595 4.8758469 -0.71882236
-8.5626211 -0.96595764 2.2317824
-8.2357388 -0.97816467 2.188417
-9.6462946 -0.80310059 2.331933
-8.2339163 -0.76078033 2.1397295
-7.9411669 -0.72854614 2.1236057
-8.54286 -0.51804352 2.1379228
-7.6496592 -0.36677551 2.0337915
2.1670456 0.25946045 0.66581833
3.059761 0.2845459 0.66118681
-11.19665 -0.51114655 2.4133558
-8.6867332 -0.2869873 2.0993395
-8.2629118 -0.33073425 2.0759869
-8.122241 -0.29428101 2.0948257
-7.5385237 -0.30313873 2.0162115
-0.16474819 0.32979584 0.87054169
3.1188049 0.45285034 0.63374484
8.3206253 7.6222534 -3.4316492
-13.075889 -0.4692688 2.739778
-11.179737 -0.20016479 2.3429656
-9.4124365 0.099731445 2.1086721
-8.1183662 0.10301208 2.0357637
3.1745071 0.98419189 0.54714978
20.33218 2.0821075 -1.6870884
20.499664 2.0981064 -1.6917742
-28.45219 20.411682 -6.1758657
-8.2289085 0.23783112 2.0087843
-5.6643972 0.46025848 1.7406145
-4.0957203 0.62026215 1.3778888
10.63768 1.6618042 -0.42225111
-3.158534 6.2162323 -1.9421743
-10.164703 0.38796997 2.1643023
-8.3933821 0.49334717 2.0291953
-6.7336159 0.62284851 1.8781987
-5.0028915 0.71801758 1.5273424
-4.7687035 0.79584503 1.4974781
-4.5715361 0.8219223 1.4802996
-4.4768047 0.82643127 1.4736906
-3.8800249 0.80593872 1.3288699
4.1880569 1.4963074 0.42697823
10.189117 1.9319763 -0.49689996
1.9679222 7.3313904 -2.616416
-12.07585 0.42229462 2.5453997
-15.595329 6.9829559 -1.1173228
-6.5431137 0.7706604 1.8389727
-5.2236776 0.83222961 1.6288515
-4.751914 0.98386383 1.4592401
6.459568 1.7741928 -0.050186992
10.20171 2.0338669 -0.50892437
0.83932495 7.6115952 -2.6176014
10.189415 7.5165253 -3.6504884
-23.037254 13.240364 -0.71055257
-6.7078791 0.98329163 1.7963525
-5.2190037 1.0518875 1.5887347
-4.8970251 1.088913 1.5496069
4.4290733 1.857872 0.30250466
9.9699974 2.1381226 -0.36413872
-12.367164 0.83812714 2.4010444
-12.181538 0.83028412 2.3938446
-6.8050117 1.1638489 1.758917
-3.9887962 1.3598557 1.462824
3.6293297 2.0519257 0.33335078
3.8805962 2.0032806 0.34286177
4.4540024 7.3784256 -2.6446609
4.2969856 2.0009155 0.34559357
4.5059357 2.0511856 0.27269471
4.8683815 2.0125732 0.28173459
9.8565369 2.3998947 -0.50308168
-21.411583 0.34496307 3.7516255
-18.000694 0.62142181 3.2825336
-15.813368 0.8326416 2.9203911
-14.363251 0.94609833 2.8021436
2.7459793 8.7972183 -1.6145123
-5.1822567 1.4603882 1.5631863
-5.0634441 1.5411682 1.4470707
-4.5510035 1.6225967 1.4027983
-3.7451782 1.5528793 1.4146663
2.8224716 2.0617905 0.37168705
-7.593976 7.9385529 -1.0386046
7.2850494 2.4614487 -0.06467855
10.129921 2.7204514 -0.59998858
-19.632977 0.688591 3.4897585
-15.748568 0.97519684 2.8890414
-13.132071 1.1502075 2.537703
-7.8342276 1.4578934 1.8004438
-6.2399321 1.6362381 1.6347457
-6.1519403 1.6929016 1.7116309
-5.1639328 1.711113 1.4393541
-4.6151571 1.7223053 1.3833152
-4.0603304 1.8939056 1.3357731
-3.5580044 1.7518311 1.3663541
2.7534485 4.8860855 -0.88298213
3.6344414 2.4505692 0.26898539
4.2245636 2.4891663 0.30342591
4.5293121 2.3435059 0.22680342
5.1382484 2.5704346 0.19613898
-5.6647501 8.0995636 -3.0521603
-26.956789 0.32421875 4.2832136
-24.959244 0.53207397 4.1591244
-21.633503 0.72405243 3.7135673
-21.394722 0.77624512 3.6753826
-21.162939 0.80695343 3.6417694
-19.606218 0.91053009 3.4463458
-18.975441 1.0239258 3.3522968
-16.943439 1.0600586 3.0405536
-15.7529 1.13974 2.8692203
-14.515955 1.2313309 2.7945752
-14.205359 1.218689 2.7666898
-13.486085 1.3152466 2.5527892
-12.947719 1.4090271 2.4735699
-12.421831 1.401741 2.4497328
-12.317747 1.4077835 2.4404659
-12.104279 1.3603439 2.4349771
-11.85731 1.512413 2.3822713
-9.1781502 1.5498123 2.083293
-8.830575 1.6406021 2.0464282
