# .PCD v0.7 - Point Cloud Data file format
VERSION 0.7
FIELDS x y z
SIZE 4 4 4
TYPE F F F
COUNT 1 1 1
WIDTH 1525
HEIGHT 1
VIEWPOINT 0 0 0 1 0 0 0
POINTS 1525
DATA ascii
-14.734541 -22.653206 0.45671996
-14.65204 -22.595573 0.45203587
-8.8045769 -22.733971 1.0514818
-8.7328873 -22.672367 1.0589321
-4.894743 -22.785246 1.2071559
-14.532179 -22.553638 0.44790646
-14.370108 -22.481886 0.44237158
-14.251419 -22.403261 0.4370037
-14.208715 -22.336021 0.43237469
-14.069288 -22.260401 0.42613181
-13.900387 -22.199326 0.42047974
-7.4054146 -22.258938 1.1736581
-7.4038811 -22.164921 1.1798893
-7.3126087 -22.027134 1.1882448
-7.0889549 -21.860609 1.197427
-7.0154266 -21.804203 1.2005897
15.313093 -31.157734 -1.6753922
16.494583 -30.641487 -1.3594519
18.658875 -25.70676 -1.0574505
20.94141 -24.523426 -0.83103669
29.582905 -22.080347 -0.070586354
16.01438 -30.741646 -1.3286871
14.776989 -30.158718 -1.3051852
-6.0179005 -19.716234 1.3104265
-6.0036602 -19.525297 1.3351402
-6.4970303 -19.240376 1.344475
-6.3122292 -19.264254 1.3407897
-6.0608425 -19.319237 1.3520594
-6.2291355 -19.137596 1.3647133
-6.3575325 -18.927837 1.361448
-6.2863216 -18.900953 1.3622391
-7.279377 -18.471607 1.1976149
-6.25457 -18.562393 1.3718671
-7.2530746 -18.329502 1.3063465
-6.361784 -18.406418 1.3604475
-6.2006149 -18.344406 1.3786101
-6.0964985 -18.243378 1.3995669
-9.4970646 -18.105305 1.1147693
-8.2197399 -18.120605 1.0635318
-6.0273418 -18.215961 1.4074312
-9.407505 -17.961479 1.1160717
-9.2040367 -17.892059 1.1143721
-9.0906296 -17.888586 1.0709438
-9.1319981 -17.774715 1.1157107
-9.0374756 -17.699326 1.1014651
-8.89044 -17.620342 1.0850565
-8.7201309 -17.411293 1.0964532
-9.9791088 -17.271952 1.097201
-9.8809185 -17.207748 1.0924726
-8.6221561 -17.403147 1.0974195
-9.8066292 -17.096188 1.0878795
-9.7413788 -16.972588 1.0835241
-9.6099606 -16.897009 1.0778129
-9.503582 -16.804834 1.0728223
-9.3862076 -16.791977 1.0687075
-6.2074184 -16.573444 1.3208989
-6.0390186 -16.47921 1.3279494
-7.4410534 -15.929855 1.3562212
-6.6050339 -15.85469 1.3655173
-5.3920755 -15.654722 1.5613254
-5.0474138 -15.684226 1.5576857
-5.3080912 -15.564738 1.5671045
-4.9963694 -15.570866 1.5653147
-4.8072233 -15.54066 1.5666598
-4.7884541 -15.293134 1.4820938
-4.6958027 -15.300809 1.4837098
-4.8229122 -15.096235 1.4991261
-3.6031618 -15.206366 1.5842495
-4.7992296 -15.026335 1.5060847
-4.7185431 -14.944595 1.5155777
-5.6435118 -14.660319 1.4027052
-5.0656824 -14.687546 1.5302292
-4.7773256 -14.708102 1.5356901
-4.6432962 -14.752417 1.5350701
-4.2319517 -14.670896 1.6163092
-4.6092234 -14.521546 1.5571169
-4.895956 -14.326815 1.5675613
-4.1641331 -14.261613 1.6722468
-4.0763779 -14.347904 1.666283
-4.0551376 -14.194884 1.6868447
-4.0873928 -14.022454 1.7067847
-6.4705944 -13.644972 1.462382
-4.1679745 -13.79994 1.7302996
-6.5594997 -13.469248 1.4733298
-6.5425644 -13.388451 1.4790277
-6.4299889 -13.312178 1.4855635
-3.8388634 -13.192766 1.7327266
-3.2878532 -13.128004 1.6403438
-2.8588209 -13.180733 1.7642648
-5.4572821 -12.997963 1.4457878
-3.3112316 -12.955616 1.6559671
-2.8768864 -12.91256 1.7917591
-4.0904837 -12.78688 1.7626077
-3.3547764 -12.74365 1.6746486
-2.8422041 -12.754946 1.8096503
-5.9449921 -12.593861 1.4679787
-5.598033 -12.595131 1.5473818
-5.4375572 -12.51347 1.5334152
-3.6721449 -12.583488 1.7789932
-2.8691759 -12.508442 1.8344412
-6.1206741 -12.232985 1.5655785
-5.8871346 -12.389296 1.5578328
-5.2585964 -12.267038 1.5764035
-2.7960596 -12.33876 1.8400043
-2.7677431 -12.201826 1.8107381
-5.457859 -11.938841 1.5971057
-2.7701206 -12.043987 1.8275692
-2.6863079 -11.995579 1.8366135
-5.8264446 -11.729469 1.6063687
-2.7496185 -11.750957 1.8598548
-2.8153477 -11.550158 1.8036636
-5.8687515 -11.368629 1.6320325
-2.931531 -11.270241 1.7523872
-2.8083 -11.328524 1.9021759
-2.9169798 -11.174517 1.7632016
-2.7077923 -11.2356 1.9165319
-2.7849846 -11.021782 1.9325224
-2.7175245 -11.006893 1.9370774
-4.9423542 -10.725985 1.5557282
-5.4839773 -10.567751 1.5473218
-5.0578337 -10.461269 1.5737942
-4.9503078 -10.368044 1.5862137
-5.2352562 -10.12854 1.5951914
-5.1296434 -10.022141 1.6086756
-3.7392502 -9.4984646 1.7245291
-3.7671528 -9.3250008 1.7365344
-3.6482344 -9.3708096 1.7353985
-3.8024635 -8.9439545 1.7634009
-3.8159885 -8.7262802 1.7788838
-6.0387135 -8.4920712 1.6001791
-4.852232 -8.5142155 1.7549821
-3.8901148 -8.4816628 1.795205
-5.9532108 -8.3530827 1.6170816
-4.8494663 -8.3226852 1.771757
-4.1751957 -8.2935505 1.8004817
-5.9665089 -8.0793839 1.6408154
-4.8268976 -8.1495914 1.787766
-4.10812 -8.1980381 1.8117768
-4.0819321 -8.0974865 1.8217672
-5.9238005 -7.9402142 1.6555594
-5.892458 -7.85569 1.6648233
-4.8053217 -7.9730377 1.8040484
-4.6143045 -7.9153061 1.8171122
-4.0466461 -7.9474049 1.836517
-5.8680735 -7.7616615 1.6745814
-4.4403734 -7.7620754 1.8378237
-3.970746 -7.7826405 1.8542985
-3.9013329 -7.6784115 1.8664623
-5.9192028 -7.5521202 1.6906596
-5.7893696 -7.4595566 1.7060529
-3.8354511 -7.5676365 1.8790526
-5.9549694 -7.3688698 1.7052225
-3.851656 -7.3155746 1.9005965
-4.1711817 -6.9035091 1.7444465
-4.1753721 -6.744133 1.7564579
-4.2352676 -6.4926281 1.7734365
-4.2562542 -6.3112736 1.7865201
-2.5871267 -6.0040627 2.091399
-2.5072002 -5.8094158 2.1075447
-2.5037136 -5.4989986 2.0496373
-2.3191938 -5.6550179 2.1226206
-2.3697729 -5.4253387 2.0628951
-2.2889147 -5.4154015 2.0677803
-4.9385958 -5.0565929 1.7527963
-2.5813808 -5.1749153 2.0747006
-4.9157887 -4.9427509 1.7603117
-4.8796721 -4.849123 1.7669207
-4.8505087 -4.724762 1.7753223
-2.7160473 -4.7445564 1.9382268
-4.8069611 -4.5648365 1.7863549
-3.9993525 -4.5420418 1.9437088
-2.6249771 -4.570013 1.9518958
-4.7946873 -4.3425751 1.8006309
-3.9293013 -4.4281025 1.9553293
-2.713357 -4.397007 2.1374216
-4.8623028 -4.0654564 1.8164694
-3.9284506 -4.1546059 1.9766978
-2.5796366 -4.1940956 1.9782799
-4.7711506 -3.9671173 1.8250657
-3.9206009 -3.9006157 1.9968444
-2.4165697 -3.9390068 2.1518376
-3.9503927 -3.649229 2.0153165
-4.8202991 -3.5528908 1.8503197
-3.9144907 -3.5509796 2.0244346
-3.9372282 -3.3303356 2.0408053
-3.9355125 -3.1309853 2.0564981
-2.4078417 -3.1905766 2.0499663
-3.9142609 -2.9780807 2.0693464
-3.8619595 -2.894865 2.0779881
-2.3691368 -2.9690075 2.0660994
-2.283493 -2.8582878 2.0757885
-2.077199 -3.0284367 2.1071048
-2.2110243 -2.7924728 2.0821033
-2.0843067 -2.814539 2.1234894
-2.187768 -2.534584 2.1005008
-2.0180407 -2.4986115 2.107281
-2.5892649 -2.144865 2.1554472
-2.8185282 2.6567955 2.2504969
-2.7367697 2.8612213 2.2697916
-2.6886396 2.9880791 2.2816539
-2.6293898 3.1384239 2.2958496
-2.5764551 3.273037 2.3085747
-2.5156126 3.406147 2.3216267
-0.52325153 3.4522629 2.4366179
-0.33969784 3.401783 2.4431939
-0.19427204 3.4169273 2.4526076
-2.4327726 3.6222382 2.3420162
-2.3536234 3.8341484 2.3619409
-0.16217804 3.8271294 2.4854338
0.13593864 3.8929825 2.5645323
-2.2964125 3.9838066 2.376111
-2.2032423 4.0399475 2.3852878
-0.039242744 4.114109 2.5142155
2.2854481 4.0678711 2.7289314
-2.9588137 4.2897911 2.311276
-2.7542496 4.2220039 2.3191662
-2.6228123 4.1815567 2.3245325
1.8693991 4.1233101 2.7104213
-3.9862518 4.4150276 2.2570338
-3.5609322 4.5128403 2.2904079
-3.3551073 4.4348259 2.2973146
-3.1495485 4.3711052 2.3053801
0.10659695 4.3567123 2.5410438
0.19923687 4.4156799 2.5509081
-3.9303617 4.5607529 2.2713466
-3.7678394 4.5733147 2.2822208
-0.30178642 4.6391525 2.538842
1.5326099 5.0206566 2.7617269
0.80081081 5.4724922 2.5538077
0.98601532 5.3856239 2.5586035
0.87910938 6.3941307 2.6261234
0.98013687 6.4203415 2.6341898
1.1677189 7.225132 2.6266654
1.2253714 7.4059677 2.643152
1.3512354 7.3975792 2.6503267
0.64904213 8.592289 2.7022021
1.3623266 8.6088638 2.7289741
0.82153702 8.8532829 2.7255263
0.92573643 8.9269638 2.7341192
3.091186 9.1965714 2.9341259
0.92290688 9.4612961 2.7691917
3.235229 9.37397 2.9524834
3.3905835 9.5344238 2.9701233
0.96813869 9.8321228 2.7952533
3.4603648 9.7836342 2.9903247
3.8104496 9.7372551 3.0017028
4.145133 9.9118767 3.027688
3.5097218 10.158646 3.0183887
3.5791969 10.427418 3.0399189
1.227993 10.71344 2.7631736
1.2594547 11.102974 2.7871118
3.7312765 11.000492 3.0859642
1.3873081 11.130981 2.7912977
3.8313293 11.107391 3.0975227
1.0489244 11.359329 2.8988955
1.4465466 11.476776 2.8130622
4.0347595 11.357056 3.1232383
4.7369299 11.422138 3.084245
4.1410351 11.509056 3.1265104
4.2432475 11.61694 3.1381841
1.1266117 11.876274 2.9358754
1.4845047 11.825829 2.834569
4.9393678 11.758194 3.119792
1.2066717 12.074699 2.9519413
1.5866985 11.945137 2.8451593
5.0197177 12.086834 3.1502178
4.2805228 12.223351 3.1815584
5.1278887 12.163078 3.1646757
1.7219496 12.466335 2.8785305
1.8072939 12.68721 2.8930964
5.2101874 12.499283 3.1958785
1.9109612 12.82177 2.9028101
2.0383043 12.838486 2.9058928
5.4057808 12.96722 3.2461262
2.0998087 13.157375 2.9257069
2.270987 13.606079 2.9547949
2.1226063 13.730774 2.959872
2.3721032 13.81953 2.9688513
5.3530254 14.339657 3.3414021
5.465488 14.571369 3.3676765
2.3207436 14.753845 3.0229874
2.5260181 15.126511 3.0490155
2.5957613 15.468758 3.0699806
5.648962 15.302082 3.4362845
2.7097073 15.656067 3.0824003
5.7362127 15.517891 3.4593801
2.7386031 16.215481 3.1154404
2.8708673 16.309875 3.1225445
2.8448143 18.204227 3.2325969
2.9574952 18.358986 3.2428215
3.0879745 18.400948 3.2466271
3.2889338 18.987511 3.1626658
3.4922123 19.056644 3.1874249
3.6846533 19.085133 3.2084599
3.1021533 19.28727 3.2982135
3.2415495 19.34589 3.3029609
3.3925834 19.385555 3.3066559
3.7949862 19.388775 3.2402217
3.8746219 19.800663 3.2763822
3.9847207 20.133591 3.3102732
4.1004295 20.374142 3.3384795
4.2192578 20.534126 3.361547
4.3215837 20.828526 3.3922186
4.4805088 20.755222 3.4035025
6.4371614 23.673824 3.7108634
6.1100554 23.913029 3.7261584
-7.6552887 -37.221653 0.90866613
-3.3601246 -37.222321 1.3042526
-3.0327005 -37.147774 1.2999214
-0.060667038 -37.128094 1.5623879
-3.8482952 -37.035694 1.2194362
0.095589638 -37.047745 1.6123101
0.30301762 -36.928856 1.4812542
0.4083252 -36.98526 1.4840595
0.58302021 -36.906181 1.6695102
1.1165056 -36.949036 1.7038018
1.4832039 -36.892635 1.6773614
10.411525 -29.792625 0.54693246
0.15517235 -36.681145 1.4463876
0.63315105 -36.794254 1.6187466
0.81960869 -36.718773 1.5765618
1.08673 -36.848358 1.7019445
1.4129267 -36.826672 1.6805905
0.64450741 -36.586636 1.5893219
0.8179636 -36.596107 1.5828779
1.0701427 -36.586601 1.6078135
1.1755142 -36.637939 1.5717347
1.4581499 -36.603996 1.6538842
0.25633335 -36.274666 1.6082556
0.6299305 -36.354328 1.5645863
0.86275101 -36.277927 1.5743688
1.0245171 -36.434563 1.5749706
-0.34272575 -36.185356 1.5233061
0.31240749 -36.162655 1.5045496
0.39528275 -36.190365 1.6631405
0.79958153 -36.136322 1.6530397
1.3246021 -36.148781 1.7545497
-1.1393738 -35.965096 1.5001265
-0.053023338 -35.875889 1.4597014
0.26291275 -35.94883 1.4778124
0.37421894 -36.016922 1.6664104
0.68306732 -35.948006 1.653329
0.74360085 -35.992485 1.5900494
0.36151218 -35.73296 1.5750002
0.71842766 -35.816231 1.5755643
0.86407757 -35.786007 1.6256785
0.97017574 -35.807987 1.6877818
1.3217955 -35.871925 1.6359985
1.4215508 -35.698723 1.6189256
-14.033079 -35.475632 0.28794417
-1.461565 -35.625534 1.4124919
-1.3648024 -35.570133 1.3804985
-1.0794477 -35.460949 1.381229
-0.47147846 -35.488003 1.5810223
0.22099018 -35.636662 1.5187352
0.38313198 -35.506081 1.5036302
0.75960064 -35.63158 1.6317544
2.7365041 -25.614403 0.53956199
1.4429388 -35.559471 1.6172612
1.5952559 -35.591663 1.6174861
1.8054686 -35.488029 1.7948517
-1.7469177 -35.38662 1.3668703
-1.5576353 -35.36858 1.3919866
-1.3101721 -35.313446 1.4101875
-1.0912008 -35.423618 1.3800578
-0.61013126 -35.353321 1.5713767
-0.40790844 -35.415924 1.5531387
-0.11923504 -35.41106 1.5906204
0.076916695 -35.398979 1.5775791
0.24847031 -35.361755 1.5640396
0.40347099 -35.324146 1.5328084
1.52738 -29.48848 1.4648837
1.0355654 -35.352657 1.6783439
1.2850285 -35.342796 1.6045173
1.4531202 -35.311363 1.7308289
1.6681414 -35.409389 1.7568288
-2.1233978 -35.131481 1.3748916
-1.910841 -35.222141 1.3638588
-1.6738844 -35.126251 1.4293891
-1.5329962 -35.179035 1.3588991
-1.2154713 -35.068562 1.4307458
-0.65272903 -35.156937 1.5849496
0.67957211 -35.198441 1.6787828
0.81543159 -35.236107 1.7094235
0.99958992 -35.220802 1.6982201
1.2251396 -35.262886 1.6400543
0.77015877 -32.922596 1.1470345
2.7764091 -33.137653 1.3191844
2.0373535 -35.147137 1.729225
2.1472692 -35.125412 1.7141863
-6.8729248 -34.942211 0.98224151
-1.8317547 -35.047398 1.3547634
-1.4032869 -35.053902 1.4536767
0.19361401 -34.968544 1.639208
0.75302696 -34.916161 1.7463717
1.3328543 -34.973633 1.7476088
1.3353119 -22.896179 0.72563529
2.6114335 -30.730572 0.14625731
7.558609 -31.278606 0.53740948
-1.1566715 -34.854862 1.3924879
0.79284668 -34.847858 1.6093305
1.1383963 -34.680412 1.6928793
1.8097172 -34.809448 1.7300395
-6.915226 -34.443867 1.001316
-6.7062836 -34.558002 0.94937801
0.44536304 -34.611786 1.7021898
0.8482151 -34.586136 1.6880407
1.1476345 -34.547459 1.6207899
1.2025442 -34.546291 1.6753434
1.2731094 -34.441082 1.714972
1.6883039 -34.333122 1.8424067
1.7639179 -34.398067 1.7997516
1.133049 -34.121193 1.718159
1.6330662 -34.170296 1.7710508
-6.3792 -33.870331 1.0448625
1.4829321 -33.975872 1.6689521
2.1630573 -34.066711 1.7958733
0.0090370178 -33.809448 1.529845
1.351922 -33.765846 1.817818
1.600503 -33.737911 1.7670839
1.8726454 -33.70797 1.7476395
1.9480753 -33.746971 1.7275192
3.6106963 -22.865297 0.27468047
1.8649025 -33.612675 1.739105
1.956419 -33.573147 1.7169086
-5.91078 -33.278072 1.2032534
0.88381958 -33.274044 1.6881902
1.2626696 -33.439171 1.6532248
1.9712076 -33.351124 1.726307
-5.8943672 -33.127819 1.1993372
-5.7120256 -33.14296 1.1924182
0.81222153 -33.206108 1.6972257
1.9450407 -33.198994 1.71916
1.9532108 -33.25087 1.7216357
0.99042702 -33.055759 1.6762762
-8.2232094 -32.713398 0.87446725
0.41317463 -32.659138 1.7230258
1.6508055 -32.635773 1.7966996
0.8306675 -32.421818 1.6709658
1.670783 -32.331104 1.8236599
1.9885025 -32.295143 1.771607
-5.6756344 -32.206825 1.236562
-5.2716885 -32.195358 1.2140545
-5.170042 -32.206581 1.1988051
0.33207035 -32.219334 1.7138745
8.1982107 -27.053009 -0.1357924
1.8111572 -32.2118 1.8514448
1.9931202 -32.150703 1.8448418
2.2946925 -32.179871 1.7798129
-5.5194378 -32.003403 1.2448658
2.1522698 -31.944971 1.7792714
2.241353 -31.978605 1.822721
2.372664 -31.929356 1.8043069
0.94967556 -31.780857 1.8045944
0.077818871 -31.522852 1.6388674
-1.8998365 -13.515162 0.4307799
0.80461216 -31.616703 1.8243649
0.79746532 -31.415375 1.8314174
1.0871887 -31.314363 1.7946998
1.3629036 -31.329063 1.7708837
0.36078358 -7.9834709 0.85119963
0.73970032 -31.090389 1.6732255
1.2133512 -31.165291 1.791721
1.7925606 -31.16704 1.9347872
0.8326416 -31.014908 1.6738049
0.96996689 -31.057604 1.7792733
1.3285999 -31.039623 1.7265671
-7.8796616 -30.658976 0.99783599
1.9741507 -30.636162 1.8057523
2.5290217 -30.62492 1.9053875
-6.850769 -30.301779 1.1025991
-6.9131603 -30.155571 1.1606722
1.8873949 -30.12261 1.967657
-7.8300495 -29.89636 1.0686642
-7.6862793 -29.896017 1.1290658
1.4915113 -30.050108 1.8344482
2.6131973 -29.998037 1.9409543
-7.2415962 -29.730371 1.1716149
1.9643154 -29.807247 1.8309258
1.9830952 -29.785887 1.8323983
2.460526 -29.737787 1.9619873
3.0196905 -29.81237 1.9659044
3.3402505 -29.64558 1.9715059
2.8224621 -29.347376 1.9565388
2.9535298 -29.426825 2.0955906
2.324739 -29.222034 2.0248139
2.8274035 -29.122183 2.0145676
3.124742 -29.105309 2.1333699
2.5160942 -29.005543 1.9164088
2.8039093 -28.993793 2.0623877
4.2955346 -27.888731 2.2334142
4.5691848 -26.02877 2.3330536
-7.9778595 -24.600538 1.2051117
-11.058474 -24.240604 1.0060868
-10.208181 -24.26104 1.0076944
-8.2546558 -24.315947 1.2258314
-10.184816 -24.123213 0.97316599
-10.135715 -24.029472 0.97550762
-8.4118385 -24.175711 1.2365954
-10.127209 -23.931892 0.9694345
-6.6128769 -23.852327 1.2767063
-6.4104099 -23.980061 1.2595807
-10.10067 -23.735689 1.0085849
-6.7811146 -23.678246 1.3009077
-14.155878 -23.441887 0.70399356
-14.066698 -23.391588 0.6993655
-7.1289558 -23.438591 1.3332955
-13.971346 -23.334215 0.69424403
-6.2001286 -23.068464 1.2818075
-15.751974 -22.945633 0.48889884
-15.63439 -22.897848 0.48417887
-15.48921 -22.84816 0.47900233
-6.3106384 -22.965658 1.2973776
-9.0403709 -22.738636 1.048219
-8.7230549 -22.608116 1.0659459
-8.2008438 -22.708401 1.230003
-8.1416378 -22.641909 1.233948
-8.0538712 -22.465698 1.2453079
-10.992996 -22.247986 0.89941013
-8.0309753 -22.320606 1.2553192
-10.997734 -22.179482 0.90496814
-8.0160656 -22.143482 1.267749
-10.853241 -21.953148 0.92532146
-13.17771 -19.976173 0.90325451
-13.081842 -19.859924 0.89605677
-12.967607 -19.755005 0.88886523
-12.815737 -19.654205 0.8809222
-12.637205 -19.494097 0.87030756
-12.519129 -19.385845 0.86336446
-11.019152 -19.539986 1.1355267
-10.934019 -19.421148 1.1347722
-10.889078 -19.378349 1.1342332
-9.6768742 -18.911203 1.2774228
-9.5892639 -18.7703 1.2819047
-9.5267849 -18.696957 1.2840372
-6.8652706 -18.635975 1.5070144
-6.5973339 -18.668346 1.3894728
-6.4588928 -18.777889 1.3948295
-9.4703827 -18.577019 1.2882732
-6.3319511 -18.578045 1.40163
-11.148134 -18.333578 1.1694503
-11.07546 -18.256968 1.1642412
-10.98291 -18.186325 1.1584432
-10.88426 -18.077965 1.1515014
-6.2743378 -18.097584 1.4998673
-10.7686 -17.985798 1.1444157
-10.714781 -17.928982 1.1408259
-9.7265034 -17.860909 1.242004
-7.2904854 -17.875889 1.4802045
-6.3438187 -17.924217 1.4346656
-6.1269474 -17.866949 1.5486847
-9.6301346 -17.75935 1.2456558
-8.9078178 -17.682499 1.3240626
-7.3838844 -17.744232 1.4939196
-7.2634602 -17.651974 1.5222404
-6.3875523 -17.818235 1.4483588
-6.2697964 -17.725468 1.5159354
-6.0624561 -17.664707 1.5830139
-9.4935532 -17.518286 1.2552692
-8.9605389 -17.528494 1.3319036
-8.8905811 -17.417953 1.336266
-8.6176758 -17.526997 1.32786
-7.4559822 -17.617252 1.5077022
-7.2954903 -17.516022 1.5401853
-6.195528 -17.453804 1.608821
-9.4074554 -17.374384 1.2611555
-9.3075829 -17.316097 1.263202
-8.7622662 -17.350956 1.3379408
-8.5683537 -17.317951 1.3373052
-6.0694427 -17.345552 1.6315773
-9.0564995 -17.114698 1.2680149
-8.6192379 -17.079407 1.3086191
-8.5223274 -17.117821 1.3465056
-6.0408745 -17.202915 1.6547651
-9.0226746 -16.935421 1.2762768
-8.4528618 -16.829117 1.2791775
-6.4286976 -16.926037 1.632929
-8.7646179 -16.701199 1.2864853
-8.382122 -16.243477 1.3524245
-8.4222336 -16.089407 1.3619682
-5.60007 -16.195629 1.6152333
-8.4490891 -15.90288 1.373646
-7.6926517 -15.820371 1.3620725
-8.6452007 -15.635317 1.3899552
-8.4732246 -15.675548 1.3880035
-5.4991169 -15.723628 1.5571547
-8.5485973 -15.526267 1.3972647
-8.4709911 -15.460172 1.4018143
-8.2556896 -15.494296 1.4005072
-7.6514187 -15.511975 1.3820139
2.4366355 -23.958086 0.32384357
6.8312874 -23.338594 0.73538387
-5.8758621 -15.036551 1.7012831
-10.897549 -14.919387 1.1978061
-0.83773041 -21.256325 0.11218193
-6.0681343 -14.98043 1.7066926
-10.885567 -14.698599 1.2104584
-4.6481667 -16.340469 -0.065570086
-1.419898 -13.361868 0.33403966
-10.776869 -14.538827 1.2209085
-0.16068935 -8.7167072 0.60566854
0.9568367 -1.5157967 0.7862711
-10.780849 -14.398636 1.2289754
-10.655153 -14.30383 1.2361046
-10.600342 -14.143359 1.246269
-7.7527809 -14.114877 1.5664198
-7.6637802 -14.053331 1.5715895
-7.4480724 -14.102502 1.5697089
-7.4355698 -13.932404 1.5823197
-7.3585949 -13.809093 1.5920902
-7.295229 -13.682413 1.6020795
-5.2294559 -13.662254 1.7495612
-5.0832233 -13.722729 1.7438577
-7.2292023 -13.553814 1.612299
-5.2369261 -13.465179 1.7625629
-5.0310946 -13.450378 1.7611943
-5.3067322 -13.290796 1.7748439
-4.878233 -13.425552 1.7611672
17.334637 -25.979147 -0.84787297
-6.7359715 -12.66363 1.686359
-5.1606035 -12.771248 1.8078357
-5.0762787 -12.758488 1.8078548
22.690382 -25.302406 -0.37334159
-6.6747398 -12.534998 1.6971341
-4.1552668 -12.610205 1.7757131
31.916784 -23.108194 0.58617485
-6.6552505 -12.298532 1.7158865
19.309216 -8.8121052 -0.13644806
10.354116 -33.443279 -1.4698718
10.993997 -32.928474 -1.2992951
-6.6295319 -12.125938 1.7298081
-5.1015167 -12.188082 1.7772323
-4.3698044 -12.128515 1.8114079
-4.2891769 -12.13283 1.8112881
-6.5893078 -11.904337 1.7478944
-4.3078442 -11.949703 1.8250611
12.817356 -31.809626 -1.1435564
13.934393 -30.565001 -1.1420156
-4.2760572 -11.605764 1.8512293
-6.1879787 -11.071777 1.8227831
-3.8663387 -11.228144 1.9944047
-6.1455688 -11.00111 1.8311515
-6.1316528 -10.910433 1.840542
-2.7024155 -10.902287 1.9487685
-2.7941389 -10.532927 1.9836127
-2.613739 -10.498957 1.9949547
-2.5671911 -10.382198 2.0091474
-2.6227055 -10.124081 2.0337174
-2.5232868 -10.084702 2.0419953
-2.9569635 -7.940649 2.0903308
-2.8917513 -7.9109516 2.0963385
-2.9250631 -7.7171154 2.1141093
-2.828826 -7.7298374 2.1172798
-2.9538794 -6.990921 2.1848099
-2.8527784 -6.9456959 2.1937928
-2.8603153 -6.7755604 2.2102075
-2.8769255 -6.597044 2.2270207
-2.9679394 -6.2659969 2.2555184
-3.1814632 -6.098772 2.1600184
-2.5886354 -6.1245995 2.1650226
-3.2024193 -5.9141617 2.1736782
-2.5535727 -5.9345264 2.179935
-3.05511 -5.6745968 2.1934681
-2.4298162 -5.6700516 2.2017803
-3.0007496 -5.5518742 2.118428
-2.5984478 -5.5589333 2.1803799
-2.4615545 -5.5548782 2.1276677
-3.3804846 -5.3367596 2.2151995
-2.9704514 -5.4544849 2.1263113
-3.2600231 -5.1229153 2.2328064
-2.9092417 -5.2060089 2.1461825
-2.6722918 -4.3025322 2.1478088
-3.1335106 -3.8767109 2.2430692
-2.6889782 -3.8914318 2.1833763
-2.5892792 -3.7291298 2.2024386
-3.176897 -3.5970497 2.2635553
-2.932209 -3.4880352 2.1669817
-3.1528311 -3.4491291 2.2752602
-3.1060858 -3.3570786 2.2831373
-2.8589029 -3.3432999 2.1820309
-2.5850182 -3.3564377 2.2354088
-2.2309589 -3.080471 2.4016848
-2.1422176 -3.0642242 2.4045243
-2.9058828 -2.7838631 2.226234
-2.7551727 -2.7807789 2.2330568
-2.6659718 -2.5696087 2.2545261
-2.611392 -2.3804836 2.2727032
-2.4826126 -2.2574463 2.2887504
-3.8512011 1.2979984 2.3732424
-3.5203753 1.282505 2.3313551
-3.8045101 1.4413643 2.3862422
-3.7325802 1.6184101 2.4028251
-3.6203728 1.8787956 2.4273968
-3.5404301 2.0665627 2.4450266
-3.5086746 2.2385826 2.4595432
-2.8387327 3.0304108 2.4714327
-2.7523232 3.2417183 2.4889691
-2.6759739 3.4656067 2.5071592
-4.1750898 3.9086609 2.2596464
-2.6808281 3.7755508 2.5290899
-2.1902571 3.9310989 2.555341
-1.9942932 3.8581352 2.5563083
-4.1249685 4.031311 2.2729349
-2.6083374 4.0372467 2.5499706
-2.3712254 3.9959602 2.5543327
-4.0762892 4.1901321 2.2890501
-4.0016346 4.3075981 2.3036814
-3.9501944 4.4473152 2.3185134
-3.3884201 4.5084076 2.3631041
-3.1849117 4.4277306 2.3710968
-3.8937311 4.5931969 2.3342223
-3.7374802 4.622509 2.3475912
-3.5316963 4.5506516 2.3563399
-0.30646229 4.6309776 2.6542459
-0.017407417 4.7174683 2.6776614
0.088412285 4.7367363 2.6852989
-1.7090712 5.1752281 2.5573621
-1.7067165 5.4976959 2.5792336
-1.2197599 5.4088821 2.5864415
0.089684486 5.4823799 2.7442911
-1.6460218 5.689743 2.5938678
-1.4072962 5.6322441 2.5964572
-1.161335 5.5904121 2.6003332
0.16221809 5.5990982 2.75776
-1.5504713 5.7562714 2.6009612
0.19466591 5.8784828 2.7817764
0.3411684 5.743721 2.7797141
0.52332783 5.9045219 2.8032289
1.5371895 5.8320961 2.8250332
1.6241255 5.9354401 2.8378317
1.7850351 6.6505966 2.902288
1.8557348 6.8369751 2.9206817
2.0564127 6.8742752 2.9346571
-1.505127 7.0664177 2.6909275
0.28974628 7.0891914 2.7866755
1.9352894 6.9308701 2.9323752
2.114522 7.1550217 2.9597232
-1.5209665 7.4855804 2.7189019
2.1439667 7.5108643 2.9890575
-1.4135485 7.8873138 2.7490985
1.9112806 8.0109978 3.1048582
1.7682266 8.1543274 3.1060553
-1.6015482 9.5801544 2.8456359
-0.29920864 9.7353058 2.9535341
-0.10336971 9.9522285 2.9752474
1.757041 10.086418 3.044781
0.76024437 10.461231 3.0401478
0.18797493 10.792816 3.0442038
1.7112188 10.860733 3.1008537
1.867033 10.722389 3.1003258
1.8728104 11.284462 3.1435843
1.8800459 11.783298 3.1821337
1.9498053 12.066387 3.2082839
2.0175791 12.367012 3.235671
2.1016874 12.556564 3.255657
1.8544655 14.192612 3.1141396
1.9307508 14.553761 3.1432595
4.5675831 14.713734 3.3650947
4.6842647 14.915649 3.3837872
4.8020978 14.990582 3.393765
4.9316573 15.102734 3.4067774
5.0393996 15.20187 3.4179945
5.2020354 15.46104 3.4897184
1.8738041 15.521416 3.2070236
2.0191669 15.533051 3.2157588
2.2544627 15.685242 3.239115
5.0436511 15.579456 3.494518
2.0919065 15.815327 3.2392349
5.2845006 15.725327 3.5092635
5.8366628 16.54887 3.5322111
6.0362954 16.663387 3.5576015
2.2258735 16.715065 3.3087223
2.3117843 17.051052 3.3366287
5.4284663 17.021511 3.5997918
5.6339016 16.954254 3.5992393
6.1378813 17.041599 3.593806
6.3790808 17.271229 3.6313143
6.7525225 17.828018 3.7043035
2.4260592 18.007778 3.4089799
5.7607403 19.182209 3.7521877
5.8615708 19.68248 3.7878575
6.0640483 19.76041 3.7968543
3.4974055 19.981926 3.4874859
3.6635995 20.405148 3.5228333
3.7857518 20.567436 3.5390129
3.880537 21.100075 3.5783103
3.9847288 21.432281 3.6048384
4.0971775 21.787155 3.6332169
4.1792264 22.262703 3.6681585
4.2872801 22.776913 3.7067957
4.3899636 23.197681 3.7390394
4.5300093 23.467369 3.7630086
4.6595268 23.580978 3.7762403
5.2580681 23.78632 3.7202265
6.0866117 23.896503 3.8179407
6.234138 24.012444 3.8421655
0.43743992 -34.819157 1.4854454
1.9672298 -32.683636 1.6532773
2.2142849 -33.772556 1.5868571
1.0141993 -36.993538 1.4404159
2.2833662 -30.427475 1.6578995
-1.1572905 -35.341187 1.3458134
2.5588794 1.3228016 0.30591446
-6.4064846 -23.538767 1.0818461
3.2709465 -29.205864 1.7573179
20.94141 -24.523426 -0.83103669
-9.8066292 -17.096188 1.0878795
1.0127621 -37.158501 1.8965982
-4.1200094 -36.947838 1.256321
-1.5752745 -36.956894 1.4896312
-1.3894396 -36.720409 1.6873733
0.067432404 -36.669952 1.6558595
0.25434399 -36.701805 1.7437464
0.38406277 -36.832394 1.734188
0.83266449 -36.77309 1.8339019
1.3667727 -36.761097 1.931484
-0.82792759 -36.553425 1.6686209
0.013941765 -36.602917 1.7265421
0.41846561 -36.527893 1.7290505
0.7991209 -36.615891 1.8404419
1.2471256 -36.555889 1.9330519
-3.158124 -36.407192 1.5422767
-1.2007685 -36.393173 1.6511884
0.66106796 -36.331444 1.7476451
1.22404 -36.476021 1.9311128
-2.7584686 -36.246361 1.578275
-0.26902103 -36.202374 1.6840208
0.029916763 -36.247326 1.8079717
0.86840057 -36.173374 1.8626128
1.0791664 -36.142078 1.8951781
1.2946968 -36.20694 1.763734
-0.65839577 -36.034084 1.7235595
7.7194934 -2.7625523 0.65875244
0.18392181 -36.015175 1.6966916
0.61104012 -36.010571 1.7775623
0.40793419 -35.722618 0.71629775
1.0841331 -35.935841 1.9407924
1.1677265 -35.91161 1.8928343
1.3230982 -35.910099 1.8807453
-1.0273266 -35.749622 1.6742202
-0.46223164 -35.695827 1.7611142
0.69110298 -35.684677 1.8125101
5.5884972 -29.688341 0.52036208
2.0714655 -33.971645 1.3849405
-1.5654669 -35.557098 1.6742604
-1.1751232 -35.504066 1.6592934
-1.0599861 -35.517246 1.6043118
-0.59925842 -35.539715 1.7424225
-0.13674831 -35.485367 1.7220094
0.22018051 -35.494888 1.7151296
0.8622427 -35.641907 1.8079542
0.81178284 -33.949249 1.4519738
1.2097263 -35.645523 1.7829579
-1.199317 -35.3834 1.6674292
-0.87854576 -35.431061 1.6533796
-0.77176189 -35.299248 1.618132
-0.65254784 -35.35743 1.6317698
0.12261963 -35.424797 1.7063513
0.28990364 -35.441677 1.7876086
0.54729652 -35.38073 1.7610154
7.1642132 10.724926 1.0375551
1.0263605 -35.333023 1.9460312
1.2455873 -35.35582 1.8639324
-1.6166782 -35.134903 1.6426512
-1.2904682 -35.157032 1.6249689
-1.2002182 -35.181717 1.650499
-1.0313082 -35.160057 1.6960183
-0.042093277 -35.203144 1.7941818
0.20656872 -35.155758 1.7606914
0.41820908 -35.134388 1.7204889
0.66501045 -35.121799 1.7530614
0.97657967 -35.154331 1.905843
1.4186716 -35.126068 1.9209574
1.5458984 -35.110188 1.9403552
-1.6670694 -35.007534 1.6907067
-1.0333853 -34.991692 1.606867
-0.73294163 -34.909771 1.6723607
0.22294521 -34.901695 1.7591705
0.48049068 -34.955788 1.9056894
0.61233997 -34.892685 1.8487422
0.86425781 -35.001961 1.8098441
0.96475124 -34.973244 1.9410628
1.4245939 -35.006779 1.8769717
2.0555964 -34.93367 2.0099263
-6.7199783 -34.69508 1.271354
0.76427174 -34.767467 1.9178631
1.2064466 -34.717464 1.8581201
1.454196 -34.791729 1.8346469
1.8271875 -34.864792 2.0038123
-6.6725254 -34.542976 1.2510911
0.57408905 -23.495995 0.0089214742
-1.6070156 -34.473484 1.6220169
-1.1851511 -34.527107 1.6515259
0.5213232 -34.517406 1.7495587
-6.900959 -34.391521 1.1304994
-1.5186338 -34.310249 1.6100203
-0.91649914 -34.286758 1.6250689
1.1885357 -34.354542 1.8970217
1.2603731 -34.212379 1.8635229
-7.3284874 -33.955284 1.0931457
-6.4074974 -34.011055 1.2386624
3.4775996 -28.036846 0.098784357
-0.38683605 -33.879154 1.8157296
1.3476162 -34.001953 1.8320851
-6.4808025 -33.781109 1.20312
-0.38847733 -33.845734 1.8147506
-6.663063 -33.517254 1.2678149
-6.5231209 -33.606155 1.2348669
-8.0674191 -33.342804 1.0778729
-8.0193806 -33.255299 1.0813059
-8.0635223 -33.178207 1.0880321
-6.1040249 -33.121273 1.2728139
-5.724185 -32.97884 1.2449574
-0.61320496 -32.908745 1.8376755
7.7590032 12.264706 2.0001919
-0.64789009 -32.774029 1.7633466
0.16344452 -32.664188 1.8495075
-3.3694477 -24.560619 1.2111838
4.3241768 -31.797029 0.62941611
-2.6751776 -35.604309 -0.16206971
-5.9222155 -31.892504 1.3026396
-5.5364094 -31.934288 1.4764683
-5.1944304 -32.021233 1.4306858
0.23669243 -31.923233 1.9117731
0.089972496 -31.555296 1.9427247
0.9711895 -31.449217 2.0486212
1.199914 -31.387672 2.0147405
1.7451286 -31.159006 2.0646265
-6.7462101 -30.755442 1.4017448
-6.7132759 -30.470745 1.4041786
1.900156 -30.657558 2.0219231
1.9447737 -30.556847 2.0316327
-6.6966038 -30.420645 1.4049532
-5.843936 -30.326948 1.3983902
2.4901118 -30.394911 2.0421824
1.7281551 -30.200296 1.9852455
-7.5959015 -29.95706 1.1857538
1.7107115 -29.758282 2.051209
2.4803481 -29.736179 2.0868442
1.4894867 -29.545065 2.1009345
2.696434 -29.499435 2.1310337
2.8140492 -29.463026 2.1154857
2.7189269 -29.21043 2.2206964
2.8372359 -29.198753 2.1994143
2.5863247 -29.014389 2.178616
4.2874613 -27.898758 2.2739
4.5183611 -26.027153 2.4910049
-8.5024242 -24.622105 1.3246347
-8.5458813 -24.557007 1.3277783
-10.258867 -24.248793 1.2357596
-10.178907 -24.231289 1.1744192
7.3816729 -24.45623 2.8414218
-10.236893 -24.10251 1.2372705
-10.170494 -24.16807 1.1708987
-8.5289135 -24.082016 1.2440964
7.8653913 -24.146973 2.7478209
-15.30777 -23.782549 0.74806178
-10.101631 -23.884323 1.1407908
-8.6462154 -23.922558 1.2549059
7.8198519 -23.999996 2.8035674
-15.165499 -23.735178 0.7423023
-14.860453 -23.652304 0.7311722
-14.715071 -23.612244 0.72502077
-10.08989 -23.735119 1.155807
7.8046112 -23.928404 2.8329842
-14.581474 -23.570492 0.71989119
-13.5026 -23.415066 1.00436
-8.8665867 -23.425095 1.3490036
-13.192137 -23.3479 1.0026549
-9.1540298 -23.30298 1.3115422
-8.8111019 -23.301304 1.3084258
-8.6965179 -23.338099 1.3823599
-11.826832 -23.031336 1.0671699
-8.7062645 -23.13986 1.3490484
-7.6144238 -23.085247 1.3812667
-7.4514256 -23.206985 1.3647052
-12.674891 -22.909494 1.0096056
-11.795313 -22.97818 1.0723095
-11.758089 -22.914307 1.0784919
-8.4475117 -22.904278 1.302146
-7.8702278 -22.89953 1.4064747
-11.624012 -22.675978 1.1016376
-8.4102249 -22.734718 1.310412
-8.3497753 -22.631041 1.3146631
-7.9522381 -22.775021 1.4240912
-11.779198 -22.488462 1.1187013
-8.2901878 -22.444572 1.3235389
-11.581095 -21.4876 1.2203254
-11.547615 -21.498312 1.2194666
-11.511553 -21.293869 1.2395661
-12.82921 -21.003984 1.1336236
-11.464605 -21.096619 1.2591072
-15.031252 -20.893677 0.90917122
-12.852245 -20.879784 1.1300906
-12.740164 -20.806456 1.1234568
-11.427433 -20.957993 1.2729101
-14.855598 -20.701406 0.92327166
-14.715275 -20.580427 0.93349969
-12.65568 -20.725573 1.1176519
-12.548889 -20.649132 1.111259
-14.619711 -20.491817 0.9399507
-14.53141 -20.401031 0.94650817
-14.417648 -20.276033 0.9555459
-14.207779 -20.148956 0.96577239
-14.062153 -20.037571 0.97444737
-11.562016 -19.900103 1.1449829
-11.540098 -19.836105 1.1448604
-11.410389 -19.779236 1.1422969
-11.168501 -19.623192 1.1380683
-6.6295738 -19.68992 1.5881692
-9.8398304 -19.006531 1.276071
-10.348986 -18.671932 1.2601997
-11.253828 -18.442863 1.177123
-10.419638 -18.483534 1.2728442
-10.276384 -18.286785 1.2864047
-10.170837 -18.158571 1.2953459
-10.09127 -18.081924 1.3007668
-7.1544209 -18.068813 1.5484163
-10.034567 -18.001553 1.3064289
-7.2415962 -29.730371 1.1716149
-6.8750057 -20.26899 1.402615
-7.3031445 -17.437538 1.5509807
-9.430748 -17.249601 1.3703384
-8.389349 -17.339901 1.6158565
-7.5444107 -17.39959 1.5324062
-9.4317856 -17.125248 1.381794
-7.29356 -17.034328 1.7458057
-7.0415974 -17.169443 1.5995158
-6.2354126 -17.11274 1.7661326
-6.3319511 -18.578045 1.40163
-8.6192379 -17.079407 1.3086191
-6.6849575 -16.959183 1.6210289
-6.3400936 -16.955782 1.780107
-9.2072659 -16.748116 1.4204925
-9.0703716 -16.63699 1.4331729
4.2872801 22.776913 3.7067957
-6.3643837 -16.8223 1.6478726
-6.6666965 -16.467049 1.823701
-6.3433685 -16.566689 1.8108561
-6.1226559 -16.51012 1.8120399
-5.8622532 -16.459496 1.8010621
-6.2013836 -16.331142 1.8173174
-6.0871525 -16.359447 1.7570859
-5.8890076 -16.276752 1.7665246
-5.6772022 -16.335789 1.8055176
-5.5505381 -16.369049 1.8043076
-7.6461906 -16.055271 1.7463208
-5.9274292 -16.180607 1.7880951
-5.6141605 -16.074987 1.8453951
-5.4840536 -16.154116 1.8395528
-7.2946568 -15.910007 1.7707312
-7.4672089 -15.706589 1.7545704
-7.6117401 -15.588209 1.7650689
-6.6737175 -14.908384 1.7163173
-6.4906311 -14.854966 1.71882
-6.3115234 -14.894753 1.7146388
-5.2196741 -14.309927 1.9434371
-5.2027998 -14.19061 1.9523855
-5.3927736 -13.720367 1.9915752
-5.4050035 -13.611015 2.0002651
-5.3570604 -13.472931 2.0104039
-5.1062193 -13.598085 1.9972309
-5.5511436 -13.364866 2.0215023
-10.374542 -12.612633 1.5926868
-10.389519 -12.497709 1.5980201
-10.259352 -12.451979 1.5987743
-10.13063 -12.411854 1.5993582
-10.040445 -12.334492 1.6021227
-9.7935772 -12.337116 1.599825
-9.6364651 -12.266205 1.6019365
-5.2699451 -12.282911 1.9828473
-9.6891937 -12.074278 1.6116531
-4.3398428 -11.705208 2.1752424
-5.5765152 -11.188482 2.0729687
-5.9749622 -10.95406 1.8721812
-4.2414799 -10.959698 2.014807
-6.0499096 -10.804905 1.8639691
-5.0492105 -10.766674 2.0267179
-4.8753233 -10.742474 2.0290613
-5.9659348 -10.536772 1.8829371
-5.9333344 -10.465904 1.8910314
-5.4770107 -10.541891 2.0438259
-5.3376427 -10.539642 2.044126
-4.8780384 -10.522326 2.0479939
-5.8508482 -10.389435 1.9013726
-5.6106482 -10.368713 1.9425825
-5.3311367 -10.369587 2.0577965
-5.2409077 -10.138044 2.0765948
-4.9998779 -10.196316 2.0746472
-5.2008524 -9.8916359 2.0966172
-5.0266056 -10.031538 2.0883193
-5.1748552 -9.7508793 2.1081057
-4.8033247 -8.8959255 2.0803542
-4.7722673 -8.7442608 2.0914743
-4.8074894 -8.5030308 2.1093538
-4.7765188 -8.4117126 2.1160817
-4.6818151 -8.4052811 2.1164649
-5.0972261 -8.1510658 2.1543686
-4.7258863 -8.1449432 2.1358817
-5.0915651 -7.9565392 2.1740274
-4.7482615 -7.9137878 2.1531472
-4.6357336 -7.8704643 2.1563883
-4.2275324 -8.0011177 2.11426
-2.5953655 -7.9622917 2.278327
-2.4825716 -7.939312 2.2845159
-5.0645714 -7.7268505 2.1979742
-4.5110283 -7.8459682 2.158262
-4.1777649 -7.7430248 2.1358407
-2.425705 -7.7407722 2.3063636
-4.9616203 -7.6001034 2.2143164
-4.9136219 -7.5199032 2.2240591
-4.039856 -7.5339584 2.1550725
-2.378808 -7.6072826 2.3213248
-4.9029512 -7.3367043 2.2428119
-4.0181913 -7.2875252 2.1756604
-2.3831615 -7.3635807 2.3455491
-2.2772579 -7.3216 2.3533111
-4.8638144 -7.168726 2.2610621
-2.2733727 -7.180378 2.3675387
-4.1167889 -7.0088501 2.1969123
-2.2891283 -7.0023746 2.3847706
-4.1269131 -6.8467712 2.2101374
-2.2758713 -6.8655949 2.3988483
-4.2045364 -6.5693741 2.2317338
-2.7460279 -6.105854 2.292336
22.887779 -25.694736 -0.50105035
-3.1816463 -5.6690407 2.3190813
9.1973944 -14.805097 0.85044122
14.616922 -30.27553 -1.285292
13.905275 -30.649334 -1.3281337
-3.684309 -5.2041111 2.3467584
-3.6376534 -5.0353832 2.3625016
-3.4962692 -4.624855 2.401938
-3.375638 -4.1525707 2.4468541
-4.7954435 -3.4889851 2.3168182
-4.7050552 -3.477293 2.3195839
-4.6256266 -3.348772 2.3314672
-4.5328493 -3.2431183 2.3418515
-4.4708738 -3.1798153 2.3482366
-4.4483604 -2.9317513 2.3686271
-4.3731184 -2.7896805 2.3816993
-4.4126902 -2.5215092 2.4024324
-2.7242327 -2.6245441 2.4288759
-2.687191 -2.492836 2.4397869
-4.449091 -2.2677422 2.4220979
-4.4452229 -2.0878162 2.4367309
-2.4991598 -2.0778866 2.475601
-3.4751234 2.4240799 2.4751492
-3.9620056 2.8579903 2.4829292
-3.9051676 2.9794159 2.4927113
-3.8477774 3.1332245 2.5047901
-3.7889214 3.2526894 2.5145073
-3.7239285 3.3916168 2.5257459
-3.6838732 3.5265198 2.5361443
-0.80907917 3.3991432 2.9334283
-0.65013123 3.3865891 2.9404387
-4.2749748 3.6581497 2.6092188
-3.6288557 3.7102661 2.5503347
-1.3096495 3.7120247 2.7307563
-0.46975136 3.6403465 2.9723802
-4.2344456 3.8228111 2.6242886
-1.9244709 3.9248009 2.7297506
-1.7994108 3.8903618 2.7305789
-1.6140842 3.8140259 2.7299445
-1.4242802 3.7407455 2.7297029
-4.1467018 4.0263252 2.6445782
-3.6344299 3.9790611 2.5691242
-2.3768005 4.0840836 2.7295415
-2.1829853 4.0130005 2.7293835
-2.0499916 3.9778137 2.7303267
0.28691673 3.9843559 3.0393867
-4.0561085 4.2260475 2.6647136
13.247285 -28.941919 -1.0366709
-2.6163731 4.1386642 2.7273073
-4.0026312 4.3666954 2.6784604
-3.6939211 4.4388466 2.6001225
16.168728 -27.30994 -0.81966925
-3.4094191 4.4842644 2.7143021
7.3767543 -33.806648 -1.5036136
10.245508 -33.28503 -1.3213967
10.562435 -32.736008 -1.2631412
-3.7415638 4.6012306 2.7090232
7.3939276 -4.6301765 1.2272223
-0.20711231 4.7355766 2.8348484
-0.13932323 5.0291557 3.0316238
-0.00044155121 5.1112823 2.8699231
-1.754365 5.1935921 2.7669692
-1.6518497 5.2134781 2.7718863
-0.055942535 5.1460495 3.0467956
-1.6328316 5.4808846 2.7927651
-1.237051 5.4844818 2.8059595
0.08652401 5.3778191 3.0756352
-1.4515924 5.6583786 2.8121307
-1.6012278 5.7563477 2.8146458
-1.1713409 6.5291634 2.8867908
-1.5156946 6.9273682 2.9058218
-1.524581 7.3117752 2.9344993
-0.88555622 7.3943672 3.0165291
-0.81568336 7.5912056 3.0337138
-0.56651783 7.5127449 3.0355403
-1.4667616 7.8586044 2.9774771
-1.3971701 8.0072594 2.9908319
-1.9344721 9.2469063 2.8945398
1.7443924 9.2663422 3.1986899
-1.8467855 9.3674469 2.9115589
-1.7830763 9.5638161 2.9331408
-1.5125246 9.699749 2.8619051
1.9063807 9.5453987 3.2351022
-1.7390251 9.8247833 2.9586763
-1.4223232 9.8172531 2.8781428
2.0225315 9.803196 3.2662911
-1.6572218 9.9235573 2.9734874
-1.3652067 9.9953003 2.8968499
-1.2166014 9.9253082 2.9023795
2.5291953 9.936615 3.3185196
-1.5889816 10.139023 2.9971449
-1.1654177 10.175953 2.9266205
-1.5282555 10.358051 3.020545
-1.4392796 10.464264 3.0366478
-0.21989727 10.385452 3.1386611
2.091795 10.319637 3.3159997
-1.3579321 10.622028 3.0565541
-1.199357 10.620392 3.0146465
2.1715746 10.517593 3.3393822
-1.1176777 10.75452 3.0322413
-0.98882771 10.851269 2.9951639
-0.16963768 10.907055 3.1786408
0.077958107 10.749836 3.0374858
0.37336254 10.728428 3.182476
-1.1098185 11.071362 3.1147649
-0.91894054 11.028969 3.015089
-0.76584339 10.945564 3.0201724
-0.1323576 11.239513 3.2042677
-0.76119804 11.411137 3.0586777
-0.042481422 11.368744 3.2165842
0.22646523 11.677929 3.1079791
0.32282352 11.790489 3.1191955
-0.046092033 11.910378 3.256278
2.2547717 13.147114 3.3108931
2.4069505 13.324837 3.3345478
4.0272918 19.187065 3.6832633
4.1433077 19.497414 3.714026
1.9433117 20.059258 3.502347
4.2207108 19.919197 3.7502735
4.9570856 19.931042 3.8029854
2.0722713 20.204754 3.5172389
4.3307362 20.237984 3.7812963
4.4879556 20.254391 3.7935352
2.1626873 20.487305 3.5397172
4.5885401 20.450699 3.8149877
4.7266951 20.560493 3.8327806
2.2675471 20.862511 3.5689809
2.3777852 21.094742 3.588974
2.4274077 21.874527 3.642993
4.896266 21.772911 3.9336286
3.7867608 21.92836 3.7649803
5.1894083 21.924881 3.9656763
2.8178887 22.251244 3.684376
2.4847465 22.503685 3.6873209
2.630578 22.527973 3.6950111
4.004703 22.729549 3.8323808
5.244339 22.736191 4.0291109
2.8795691 23.032791 3.7391472
3.0021496 23.243992 3.7584302
4.094234 23.247807 3.8731761
4.2406044 23.368233 3.8894973
3.1094322 23.656078 3.7905169
4.4642177 23.522297 3.9123566
4.6170259 24.282124 3.9733422
4.9512129 24.28616 3.9918284
0.49863148 -36.880447 1.9555287
0.78404045 -36.965191 1.9093393
-3.5665779 -36.670879 1.5871277
0.38899422 -36.829243 1.9610815
0.55305576 -36.855797 1.8798652
0.75705719 -36.69733 2.0184228
-7.9040298 -36.458794 1.3193309
-7.3575363 -36.550964 1.2991881
-3.537364 -36.510418 1.5773535
-1.4102287 -36.544071 1.7161667
-0.05772686 -36.583473 1.9560882
0.23519993 -36.577175 2.0199611
-3.5753965 -36.436539 1.5522779
-3.2067194 -36.349144 1.5598494
-1.1756392 -36.336082 1.874354
-0.56544209 -36.32869 1.9042188
0.58171558 -36.386452 1.9976656
0.82559776 -36.315865 1.9641317
1.0271959 -36.372379 2.0731602
1.1390724 -36.383091 2.0766411
3.512754 -29.643963 -0.54959869
-0.36987591 -36.177055 1.8607018
0.25920677 -36.262398 1.9774228
0.42774487 -36.165951 1.9979253
0.60057163 -36.13913 1.9724381
0.82674599 -36.280067 1.9646064
1.0293732 -36.254845 1.9752452
-4.4334259 -35.900551 1.6059399
0.48945999 -36.013077 1.997404
1.2659712 -35.98053 2.1664307
-0.54019547 -35.792179 1.995965
-0.31571388 -35.834461 1.9802152
-0.069830894 -35.535027 0.61105585
-0.085253716 -35.746017 1.953151
0.25998306 -35.866196 2.0744495
0.33929634 -35.798149 1.8975168
0.77605915 -35.862946 1.9738895
0.9534626 -35.795174 2.0503771
1.2474241 -35.879173 2.1476245
1.3139324 -35.796638 2.1290388
1.8886557 -35.815205 2.2091999
1.9113541 -35.839813 2.2140605
-0.93029118 -35.506584 1.926729
-0.82972145 -35.545433 1.9171753
0.065816879 -35.495457 2.0105095
1.3506031 -35.543224 2.0848763
1.933013 -35.676716 2.1767957
-0.98306942 -35.424942 1.9393137
-0.87663937 -35.355118 1.8662938
0.08043766 -35.452011 2.0029783
0.40870857 -35.314331 2.0322456
0.60241699 -35.387531 2.0140598
0.83082962 -35.411423 1.9727832
1.2428875 -35.463383 2.010036
1.376893 -35.445492 2.1447253
-1.5011196 -35.227356 1.9334871
-1.0286694 -35.240829 1.8882602
-0.52308178 -35.225533 1.8347383
0.25054264 -35.155918 1.9482871
0.7853756 -35.199566 1.9675
-1.0315847 -34.908951 1.8857599
-0.34843159 -35.033569 1.9706779
-0.2450037 -34.954727 2.0112386
0.03032589 -34.945919 1.9348558
0.2701025 -35.01495 1.9284673
9.2472982 -7.8937817 0.81128585
0.25804901 -34.811089 2.0009046
0.74617863 -34.742828 1.9810607
-6.8966293 -34.443417 1.4207109
-6.6778641 -34.586166 1.3678913
0.057636261 -34.663231 2.0223544
-0.86567974 -34.446823 1.8995028
-0.77195835 -34.07962 1.8877251
-1.5286417 -34.063103 1.9417317
-0.77266693 -34.007683 1.8873729
-7.3297691 -33.816113 1.2673287
-7.6731606 -33.501511 1.4283299
-6.6487179 -33.449375 1.3700351
-7.9189682 -33.261707 1.3502518
-0.35103035 -33.413719 1.9628369
-7.9180069 -33.126293 1.3519044
-0.61802959 -32.821102 1.9042917
-5.1146383 -32.508224 1.582219
-5.1185627 -32.302177 1.5580913
-5.4998884 -32.091301 1.609646
-5.4523602 -32.065876 1.6580701
1.6629009 -33.756046 0.29671678
0.72391796 -31.520187 2.084713
0.84424782 -31.456379 1.262395
7.2021308 -32.34827 0.9527148
-7.43783 -31.105465 1.4735481
-6.8378334 -30.963484 1.4316158
-7.8734951 -30.715298 1.4417292
-6.7459087 -30.753513 1.462445
0.95594311 -30.525736 2.2302194
-6.9422493 -30.269018 1.4259269
-7.9258614 -30.206577 1.5003499
-7.6761475 -30.032871 1.4724216
-6.9524441 -30.15139 1.4736142
-8.0006676 -30.006155 1.436588
1.409524 -29.863142 2.2705872
2.3135185 -28.867971 2.380367
14.65359 2.6571465 1.1065308
4.0919361 -25.761959 2.6596191
4.1009202 -25.652845 2.6935911
-11.000528 -24.602674 1.2294425
-10.994156 -24.541 1.2258294
-15.269901 -24.19561 1.0057148
-10.263617 -24.226751 1.4491755
-15.103273 -24.073257 1.0065063
-10.188158 -24.120995 1.4502307
7.1648026 -24.260042 2.9355917
-14.468206 -23.547424 1.0687598
-9.2047424 -23.567247 1.4262884
-6.9765701 -20.833946 1.1779938
7.5427108 -23.728401 2.9206123
-14.019274 -23.280939 1.072022
-13.915977 -23.235331 1.0723239
-13.770164 -23.201777 1.0717531
-9.1182022 -23.402664 1.413956
-4.0853653 -11.770954 1.5959183
-12.043062 -23.00111 1.2320265
-8.8457394 -23.125313 1.5444825
-12.009539 -22.947954 1.2373749
-11.989199 -22.805727 1.2517843
-12.002165 -22.665131 1.2660947
-17.668888 -22.46253 0.79199111
-17.529327 -22.368717 0.79801333
-17.5301 -22.284121 0.80255926
-8.1553764 -22.047792 1.7022505
-8.1151505 -21.941414 1.7214882
-15.691502 -21.653198 1.0530301
-13.205793 -21.251215 1.1567391
-13.075905 -21.214199 1.1504668
-13.00668 -21.091187 1.1433498
-11.400126 -20.903236 1.2784473
-8.2843475 -19.385653 1.6452328
-8.2705173 -19.051453 1.6585184
-8.1170063 -19.060013 1.6647177
-7.5913582 -19.109711 1.6736526
-8.4502449 -18.881163 1.6806134
-8.3689518 -18.98291 1.6755911
-8.1176167 -18.927345 1.6799601
-8.2188988 -18.789829 1.6862401
-8.5723381 -18.433254 1.7515212
-8.3549385 -18.428097 1.7603019
-8.7768707 -18.236612 1.7770923
-8.945507 -17.671417 1.7702342
-8.9975529 -17.520241 1.7792611
-8.9719467 -17.451771 1.7816504
-8.8818531 -17.356937 1.7831262
-8.6203175 -17.33917 1.7750224
-8.5513229 -17.267403 1.7762374
-10.428278 -17.192968 1.6746478
-10.249853 -17.097185 1.6776686
-8.6418686 -17.120159 1.7866386
-10.189613 -17.004803 1.6824105
-10.064365 -17.007465 1.680349
-9.9411621 -16.913536 1.6843615
-7.7430782 -16.932655 1.7639626
-9.9977989 -16.669571 1.7005013
-8.2073841 -16.674263 1.7920879
-9.9713879 -16.565567 1.7067168
-8.2050571 -16.263245 1.8170475
-7.2210636 -16.178064 1.8551224
-8.130209 -15.947317 1.8346734
-8.2550926 -15.725949 1.8516821
-7.3680782 -15.718087 1.7963928
-7.6709156 -15.492332 1.7940176
-7.5288811 -15.472468 1.9156615
-7.8204746 -15.281036 1.8331729
-7.7977657 -15.163821 1.8473588
-7.6750298 -15.223825 1.8532791
-9.0569248 -14.991456 1.7955451
-8.8676987 -14.998226 1.7934128
-9.0937862 -14.702179 1.8163608
-8.4174042 -14.735058 1.813499
-7.9554214 -14.790662 1.9084123
-7.076889 -14.82846 1.9424896
-6.8182774 -14.684682 1.9975973
-6.7580776 -14.647972 2.0058012
-9.0119019 -14.534704 1.8277003
-8.3809433 -14.577041 1.8267421
-8.3485909 -14.469968 1.8357724
-6.6886024 -14.625064 2.012361
-11.198151 -14.315787 1.5266502
-9.0362301 -14.28939 1.8456042
-8.2515526 -14.374809 1.8438786
-8.0460911 -14.335383 1.8709407
-7.9309578 -14.307254 1.9539584
-11.224644 -14.11728 1.5342084
-9.0289764 -14.153613 1.8554353
-8.9650631 -14.115457 1.8577901
-7.9735146 -14.192676 1.8597254
-7.8858414 -14.144 1.890082
-7.7085934 -14.125597 1.9134345
-11.136223 -13.946609 1.5389743
-7.6063442 -13.99724 1.8733349
-7.5048332 -13.905682 1.8815703
-11.123529 -13.712606 1.5475599
-7.4505405 -13.721235 1.8978535
-11.107397 -13.477852 1.5563389
-7.3961563 -13.583614 1.9101218
-5.2476854 -13.643145 2.0615513
-11.080475 -13.351181 1.5609134
-6.4011593 -12.736879 2.1415889
-6.3738747 -12.668903 2.1497767
-5.6390686 -12.645763 2.1666481
2.7768521 -29.871143 1.3473254
-6.1110363 -11.693396 2.0334506
-7.391964 -24.654844 0.62769747
-7.002636 -20.96909 0.83090186
-4.4592438 -11.466328 2.2002761
-6.3904037 -11.298805 2.0174205
-4.4608727 -18.513426 1.0915694
-5.9493256 -11.290556 2.0655608
-4.7836981 -11.38076 2.1965313
-4.7647114 -11.298988 2.2078264
-4.3161316 -11.422241 2.2122605
-1.3763762 -7.7085037 1.6020647
-3.7178564 -4.9973984 1.9875323
-3.8055296 -11.081053 2.2771356
-6.4689541 -10.929743 2.05423
-6.223196 -10.931068 2.0608873
-6.0096416 -10.946817 2.0937617
-3.8427839 -11.022001 2.4423866
-6.5660782 -10.826246 2.0624812
-5.9713078 -10.823645 2.1037469
-4.8611107 -10.845739 2.2611723
-6.4236336 -10.530005 2.0977516
-6.3446541 -10.512802 2.1017709
-4.69415 -10.601494 2.2994761
-6.4160786 -10.311985 2.1210444
-6.2911758 -10.293453 2.1264994
-4.8026371 -10.243362 2.3399391
-3.9557762 -10.179131 2.3834188
-4.859786 -9.9852962 2.3697853
-6.4181595 -9.559494 2.2150314
-6.3411694 -9.5308876 2.2199941
-6.4141254 -9.3311405 2.2389309
-6.2910919 -9.2896004 2.246465
-6.1889229 -9.2295475 2.25541
-6.1309948 -9.1767712 2.2624536
-6.1957798 -8.9820423 2.2811272
-5.0720749 -8.8539753 2.2658925
-5.0859718 -8.7096653 2.278151
-5.031332 -8.5857601 2.2888436
-6.2744122 -8.2961998 2.2476728
-5.0049295 -8.4285812 2.3023405
-4.954545 -8.3645439 2.3079588
-6.2614288 -8.1216202 2.2669089
-6.1295643 -8.1031704 2.2740011
-4.9328108 -8.1898441 2.3230062
-6.0597839 -7.9326687 2.2951224
-4.8626814 -7.9550133 2.343431
