# .PCD v0.7 - Point Cloud Data file format
VERSION 0.7
FIELDS x y z
SIZE 4 4 4
TYPE F F F
COUNT 1 1 1
WIDTH 1481
HEIGHT 1
VIEWPOINT 0 0 0 1 0 0 0
POINTS 1481
DATA ascii
15.347217 0.43155694 -1.2156452
15.562743 0.48254129 -1.2308477
18.926388 0.49667525 -1.449316
19.106459 0.32506549 -1.4514315
-4.5775518 0.94795096 -1.0166653
-4.3034878 0.93507671 -1.070626
-3.806195 0.8437258 -1.0873675
-3.2841096 0.80129588 -1.0399406
-1.8210809 0.87939388 -1.0321404
-1.1649288 0.7896294 -1.0129821
1.7988372 0.5040043 -1.0107663
2.431026 0.79619157 -1.016373
2.7317362 0.69897217 -1.0358003
3.2865651 0.73498321 -1.019201
3.9508681 0.72463918 -1.1053714
5.1464725 0.76462734 -1.132038
6.4176164 0.52127397 -1.0201175
6.8592091 0.54592174 -1.2217678
7.3626461 0.58069158 -1.1152834
7.5923786 0.59954047 -1.1575923
8.379283 0.51636314 -1.1592755
8.6489677 0.64950931 -1.1741731
9.2999249 0.69756329 -1.1043814
9.6381016 0.53860998 -1.0651824
10.172491 0.60899872 -1.1832246
10.728173 0.63117635 -1.0002565
11.334225 0.84941626 -1.1047249
11.833524 0.75769293 -1.2714641
12.308339 0.63251287 -1.2444637
12.765817 0.65592283 -1.2444909
13.257698 0.73372132 -1.2646836
13.716965 0.81923819 -1.2779404
14.19768 0.81058753 -1.2827187
14.750126 0.76247144 -1.2538923
15.2475 0.9166292 -1.2137375
15.808079 0.75701511 -1.3184276
16.210896 0.8930012 -1.2881551
17.16515 0.52096629 -1.2564926
18.027796 0.79216254 -1.127521
18.923403 0.56839681 -1.4480288
19.0821 0.79613417 -1.0165362
-5.2438903 1.2754449 -1.0167836
-4.6790996 1.1979024 -1.0637306
-4.0408401 1.0743123 -1.0445272
-3.8137822 1.0686591 -1.0601935
-3.2618127 1.1673207 -1.0127316
-2.8893745 1.3806194 -1.0169117
-1.7712029 1.0761547 -1.0256058
-1.2929978 1.0970544 -1.0139078
2.4050534 1.1787367 -1.0146456
2.7482979 1.1791887 -1.0194062
3.2475123 1.2462757 -1.0181432
3.7596538 1.31311 -1.0111766
4.222363 1.3776352 -1.0068061
7.8369756 1.1581826 -1.4349685
8.1216936 1.3369074 -1.4197478
11.360836 1.4704084 -1.0446674
11.859528 1.035974 -1.1847572
12.229037 1.1600856 -1.1741875
12.766215 1.1932974 -1.2759808
13.289476 1.2115129 -1.2792162
13.794538 1.1401026 -1.2488948
14.237954 1.1554518 -1.2467147
14.749694 1.2530528 -1.2528031
15.245084 1.3134346 -1.2435315
15.727075 1.3010454 -1.2350491
16.230095 1.2279165 -1.2995694
16.731506 1.3042784 -1.272913
17.281326 1.2367537 -1.2359185
17.735685 1.3291883 -1.226447
18.25276 1.4013908 -1.2502944
-3.2691441 1.6615813 -1.0146222
-2.6360068 1.7393563 -1.2761866
2.7490554 1.7161627 -1.0131534
3.1223106 1.9058263 -1.0012249
4.2090302 1.8933319 -1.0086676
13.811954 1.5705599 -1.2734132
14.280642 1.5766933 -1.2711325
14.794213 1.7542063 -1.2824308
15.283541 1.6634884 -1.2801386
15.761298 1.682498 -1.2506671
16.239452 1.7642883 -1.2416705
16.751982 1.8200895 -1.256299
17.222837 1.7816873 -1.2252141
17.723145 1.7072959 -1.3080164
18.282295 1.8782949 -1.2173804
18.738901 1.7214781 -1.2468067
19.040565 1.9856939 -1.2644937
19.897572 1.9196609 -1.2964053
20.099827 1.9689058 -1.241055
3.9088607 2.0956793 -1.0142566
4.2466435 2.3152256 -1.0149262
4.698225 2.3630347 -1.008999
5.3212786 2.3045032 -1.003361
15.359233 2.0655172 -1.2820996
15.802678 2.1311851 -1.3101774
16.354788 2.1329625 -1.2823939
16.743498 2.1169615 -1.2741951
17.27676 2.1665092 -1.2341777
17.715681 2.2680135 -1.2028108
18.229265 2.3158815 -1.2381598
18.688095 2.2538807 -1.2354313
19.181767 2.3140252 -1.2832453
19.803823 2.3295863 -1.2166256
20.243225 2.2363873 -1.3005276
5.1891413 2.6758499 -1.0098586
5.7809763 2.8966217 -1.0347732
6.0540781 2.5780492 -1.0132346
6.7081347 2.8836319 -1.0123448
16.377712 2.536762 -1.2967492
16.761391 2.5457475 -1.2927661
17.876188 2.5366104 -1.1773316
18.260529 2.6048183 -1.1920496
18.745398 2.6640627 -1.2081116
19.275892 2.7400408 -1.2243754
19.7166 2.8369877 -1.2515135
20.207302 2.84424 -1.2060002
20.730356 2.7675307 -1.2622044
21.228683 2.7464166 -1.2221954
21.610615 2.7528844 -1.158518
22.654438 2.8595021 -1.4555793
5.7927151 3.0892086 -1.0080442
6.4001403 3.3753452 -1.026595
6.6798959 3.2751153 -1.0272242
7.4807119 3.2359838 -1.0029315
7.535089 3.2367065 -1.0143504
18.472052 3.3083749 -1.475605
18.764883 3.3579965 -1.4542961
19.262478 3.174161 -1.3050942
19.813463 3.0877542 -1.1986363
20.275675 3.1390157 -1.205879
20.740698 3.1844511 -1.2004299
21.202196 3.3114839 -1.2318726
21.717628 3.3380172 -1.2855756
22.22047 3.3137991 -1.2525934
22.755823 3.1905162 -1.2858711
23.188578 3.3660498 -1.2478276
23.516697 3.453907 -1.1861722
6.3345141 3.5811498 -1.0010281
6.9042459 3.6970243 -1.0042567
7.3250709 3.8206742 -1.0305538
7.6418085 3.8795116 -1.0126193
8.5645571 3.6720176 -1.0099312
19.398617 3.510138 -1.408041
19.726803 3.5999169 -1.3838243
20.899061 3.5522838 -1.2500114
21.276558 3.6566167 -1.218474
21.770344 3.6550674 -1.2851104
22.246864 3.6727793 -1.2430543
22.747244 3.7628164 -1.248965
23.220779 3.8284721 -1.2553619
23.73274 3.791153 -1.2994606
24.226843 3.804868 -1.3126084
24.730755 3.9218569 -1.2939785
7.1763067 4.072854 -1.025112
8.3550367 4.3823552 -1.0597937
8.6941376 4.3564577 -1.0515943
21.274193 4.0147996 -1.0846248
21.782316 4.0860591 -1.0790271
22.334351 4.026732 -1.0183862
22.82745 4.2323647 -1.2700403
23.370464 4.16151 -1.2082856
23.792498 4.0902152 -1.2231135
24.246225 4.1922383 -1.3093607
24.753157 4.3282561 -1.2122515
25.21456 4.3591814 -1.311072
25.685398 4.2461219 -1.1730983
26.246744 4.4451456 -1.1561081
26.762848 4.0760179 -1.1728184
27.226685 4.1997013 -1.1477191
27.710272 4.3039675 -1.2126553
-1.212276 4.8183064 -1.023216
-0.97982311 4.997807 -1.0160217
8.2545118 4.7978344 -1.0457568
8.8374243 4.5674987 -1.0024748
9.1903839 4.9484897 -1.0175297
24.259863 4.6145973 -1.1391031
24.793034 4.765625 -1.2527729
25.269705 4.6928368 -1.2290958
25.784557 4.6507373 -1.2262115
26.228142 4.7460132 -1.228243
26.755516 4.8373737 -1.3189864
27.227764 4.8719006 -1.1581008
27.693958 4.8485107 -1.1964824
28.187439 4.8126316 -1.211393
28.755358 4.9783764 -1.214255
-0.76659489 5.0023618 -1.0079837
1.9105177 5.0072236 -1.0934734
2.2746429 5.2954154 -1.0797997
2.8250182 5.3069391 -1.0556645
3.1323571 5.310699 -1.0419893
8.223711 5.0998912 -1.00538
25.390591 5.0706472 -1.1228527
25.734356 5.1666236 -1.088084
26.32987 5.3127928 -1.301844
26.763531 5.0849605 -1.232626
27.290043 5.1797457 -1.3037093
27.757494 5.2116466 -1.2146853
28.260139 5.3029542 -1.243929
28.661369 5.2737665 -1.1951545
29.329567 5.3536644 -1.1220086
29.524055 5.4059315 -1.1209121
26.777916 5.6073508 -1.1058974
27.760046 5.6700969 -1.2698895
28.083256 5.678793 -1.3638002
28.805756 5.6531944 -1.2470099
29.260471 5.7358537 -1.245973
29.724237 5.8009543 -1.2417045
30.265213 5.8635516 -1.3164285
30.824799 5.851542 -1.34909
31.222477 5.8351765 -1.3906083
31.74375 5.8656197 -1.2478509
32.142284 5.9512672 -1.4229642
23.571447 6.3248196 -1.0088679
28.858139 6.1780505 -1.4953483
29.250217 6.2379775 -1.3779318
29.743093 6.0806146 -1.2320194
30.301891 6.1478233 -1.1804471
30.742544 6.170558 -1.2629395
31.231703 6.2445679 -1.221279
31.7071 6.2874513 -1.2921147
32.200809 6.2419825 -1.2416394
32.6217 6.2701492 -1.25516
33.078957 6.2095833 -1.39045
28.8626 6.5694051 -1.193459
29.272688 6.6299772 -1.2260983
29.717325 6.7133908 -1.2971578
30.243727 6.7328639 -1.3500751
30.695761 6.9604311 -1.4006704
31.274929 6.5389271 -1.3977716
31.716146 6.6378512 -1.313013
32.227432 6.7463279 -1.2325789
32.708771 6.6887789 -1.2121334
33.255352 6.8610244 -1.2223386
33.718128 6.7950754 -1.2055892
34.25008 6.8366199 -1.3398499
34.661179 6.8644271 -1.2757615
37.184586 6.961051 -1.4926527
30.755466 7.1325665 -1.3980575
31.286682 7.1920419 -1.2509459
31.698313 7.3241496 -1.2061199
32.16647 7.1976824 -1.1483068
32.809029 7.2830496 -1.1610146
33.33247 7.1448436 -1.3552735
33.729187 7.2308974 -1.3473611
34.247078 7.1873102 -1.1471567
34.728592 7.2646842 -1.1969346
35.324883 7.3003182 -1.24262
35.706535 7.3986793 -1.2369621
36.373959 7.0767088 -1.2510854
36.738487 7.1532145 -1.2442961
37.272976 7.2950873 -1.2095441
37.589638 7.4462357 -1.1828134
31.911293 7.6340704 -1.3142866
32.221573 7.6155052 -1.234181
32.676033 7.7949958 -1.2553383
33.136063 7.9181356 -1.2574825
33.856743 7.587862 -1.1411343
34.288322 7.7038627 -1.3033557
34.816113 7.7744908 -1.3463552
35.258255 7.7983446 -1.2867278
35.808647 7.670002 -1.1777645
36.255154 7.7036548 -1.1868534
36.674694 7.8813396 -1.1263584
37.813087 7.6177344 -1.1603744
38.201275 7.6711326 -1.1416044
32.963337 8.4286976 -1.1162969
33.415379 8.0295658 -1.2539099
33.684258 8.2312012 -1.2337582
34.169456 8.4740362 -1.2209333
34.811947 8.1451921 -1.4292744
35.395775 8.0680065 -1.2565513
35.790943 8.2025948 -1.2897168
36.177486 8.2393408 -1.2779504
36.795147 8.274353 -1.3094876
37.24884 8.1987658 -1.1502135
37.685455 8.3112993 -1.1922803
38.112991 8.4085712 -1.1881235
39.928097 8.4414558 -1.4664402
33.503613 8.9274006 -1.1394302
34.288227 8.6584425 -1.1963685
34.772434 8.8110809 -1.1937631
35.264511 8.8626356 -1.1072514
36.263252 8.876174 -1.3688688
36.648121 8.7969751 -1.3832424
37.185307 8.7047691 -1.3362122
37.67535 8.8925362 -1.3190567
38.296581 8.6674948 -1.1392289
38.756779 8.7038507 -1.27073
39.46954 8.9471207 -1.2752733
39.656754 8.6138334 -1.4872437
40.395271 8.6260662 -1.4470699
35.790771 9.1198959 -1.0887473
36.33503 9.3836527 -1.0765402
36.642403 9.0844212 -1.3656849
37.230518 9.3357391 -1.2542461
37.74147 9.1734037 -1.3314111
38.256191 9.3881969 -1.1773515
38.757462 9.1232605 -1.1133183
39.143299 9.2264004 -1.157336
39.770332 9.3395138 -1.0609093
40.243721 9.4643393 -1.0484452
42.340324 9.1334295 -1.0413158
42.645535 9.2717304 -1.0296311
36.734589 9.5815468 -1.0432003
37.266033 9.6675434 -1.0505605
37.862297 9.6899586 -1.1532454
38.225044 9.7083988 -1.2818179
38.730755 9.6636305 -1.1447647
39.242958 9.8824301 -1.0904645
40.126389 9.6261015 -1.0371341
40.856983 9.7357874 -1.0237823
42.938423 9.6339321 -1.0199347
43.153931 9.7230206 -1.0031431
38.846619 10.04425 -1.2455628
39.301529 10.275172 -1.2518839
39.700481 10.316813 -1.3567742
40.31794 10.413998 -1.2183373
40.840839 10.109632 -1.3179716
41.228531 10.376884 -1.3001314
41.645416 10.452234 -1.35027
43.230713 10.431555 -1.406445
43.878815 10.224813 -1.444124
39.942364 10.589193 -1.3626928
40.252312 10.667747 -1.3523474
40.69965 10.688568 -1.2992016
41.127831 10.773216 -1.2641972
41.600426 10.821428 -1.3541316
42.169762 10.836322 -1.2680138
42.510452 10.87442 -1.264904
43.287651 10.645872 -1.4776057
43.806446 10.692585 -1.4704474
44.094826 10.967854 -1.4600906
44.809013 10.791359 -1.036292
41.363251 11.171569 -1.3862919
41.77364 11.164299 -1.3389835
42.176575 11.348495 -1.2336224
42.763908 11.189445 -1.2996135
43.205055 11.276272 -1.2864821
43.708458 11.470267 -1.2083209
44.415089 11.352019 -1.202197
41.411427 11.793889 -1.2553529
41.58202 11.858917 -1.2468398
42.246449 11.688794 -1.2584056
42.765892 11.674463 -1.2138722
43.23465 11.843032 -1.1485248
43.68121 11.824384 -1.1130453
44.404289 11.654233 -1.1858854
44.755459 11.743404 -1.1701312
45.044182 11.906593 -1.1679466
43.2397 12.183284 -1.1396105
43.706276 12.05255 -1.0687435
44.256245 12.286034 -1.0878891
44.591614 12.377035 -1.0705141
45.479305 12.353415 -1.1563454
48.308582 12.473289 -1.4237158
44.758457 12.851648 -1.3269908
45.214626 12.926491 -1.2575328
45.720535 12.916531 -1.1743824
46.291481 12.540565 -1.1052222
48.102554 12.540745 -1.4301351
54.243969 12.858687 -1.4285049
54.596092 12.94968 -1.4192601
45.306713 13.402719 -1.0567758
45.980057 13.066124 -1.1412897
46.278549 13.287397 -1.0578309
50.380478 13.420287 -1.2044756
50.610435 13.460472 -1.2150067
52.231262 13.358024 -1.1720146
52.73806 13.372114 -1.0947194
54.802273 13.050268 -1.3886731
55.211624 13.232454 -1.3657073
55.617279 13.404985 -1.3425363
45.312641 13.578503 -1.070375
45.582253 13.51552 -1.0433229
50.78714 13.604353 -1.26333
51.302021 13.790575 -1.2451998
51.646976 13.871241 -1.238458
55.912498 13.569054 -1.319195
56.266533 13.65587 -1.3587731
56.703926 13.806071 -1.35325
51.885437 14.03852 -1.1861982
52.02729 14.033199 -1.203523
58.208385 14.405518 -1.1602204
51.706535 14.822365 -1.0571606
58.458782 14.580906 -1.1283886
59.273117 14.820607 -1.0793542
52.192978 15.040965 -1.0159438
59.808605 15.045039 -1.0368189
60.218575 15.174512 -1.129168
60.72168 15.327948 -1.176591
54.413963 15.679426 -1.483665
54.760033 15.840818 -1.4628773
55.088039 15.980864 -1.4424081
56.145317 15.988359 -1.3510966
61.221725 15.569244 -1.1397257
61.745872 15.838519 -1.1012954
62.122223 15.962585 -1.0716083
55.283733 16.037201 -1.4286466
55.756279 16.172842 -1.3952923
62.393898 16.049852 -1.0500236
62.625023 16.199274 -1.0337253
64.307373 19.523075 -1.145582
63.714691 -113.85223 -0.57957977
64.6035 -113.83035 -0.50333405
30.951733 -102.54149 -0.64192337
31.454895 -102.78522 -0.62595838
43.995789 -102.61562 -0.50617689
30.793268 -102.37843 -0.64698905
31.348013 -102.40215 -0.63114804
42.230949 -102.16518 -0.69847125
42.635933 -102.24522 -0.61768311
19.265707 1.3267499 -2.3337641
-12.357801 -5.3218908 -1.7422303
-13.831222 -5.1488724 -1.6545863
41.239517 -101.66531 -0.6259827
41.783768 -101.89259 -0.70687813
-1.7343788 -88.038002 -3.4151335
-10.26674 -5.2924623 -1.6845865
41.396423 -101.27692 -0.62454408
41.678608 -101.04198 -0.62143177
-31.846653 -33.867237 -4.8574419
21.473755 1.256665 -2.4041572
-3.7648189 -5.2542315 -1.815222
30.184196 -100.45382 -0.67615074
30.744429 -100.32155 -0.5887503
-2.6057992 -7.7987456 -3.4152722
30.448708 -99.840767 -0.52816242
30.553379 -99.765602 -0.67152828
39.771889 -99.689041 -0.75372022
40.529881 -99.607788 -0.63816565
-28.426548 -31.533293 -3.5235898
-10.169202 -4.6715279 -1.6472343
26.656734 -99.440414 -0.78658664
29.903553 -99.379608 -0.54876894
30.161556 -99.039871 -0.53589195
34.195461 -99.199028 -0.6651482
39.439201 -99.391983 -0.76140302
39.979141 -99.474731 -0.74888366
-27.418266 -31.892824 -3.8870993
-27.767109 -20.164921 -2.2469819
-3.7123992 -4.7352614 -1.7421105
-5.2799134 -4.7620659 -1.824352
26.385738 -98.77507 -0.84043014
26.661488 -98.811279 -0.61104095
29.473057 -98.818954 -0.61207765
29.70808 -98.68425 -0.59375757
34.695404 -98.887337 -0.61870211
38.651886 -98.67205 -0.54248661
39.084656 -98.7836 -0.76977152
43.042946 -98.671349 -0.68158835
43.9217 -98.796707 -0.51828116
1.4116926 -4.6766267 -1.5211985
26.889565 -98.1717 -0.67413867
27.460941 -98.300735 -0.6890043
27.538509 -98.038124 -0.62754881
33.968464 -98.467773 -0.70854706
43.375938 -98.399902 -0.60317212
43.817047 -98.115341 -0.52293867
-6.7047634 -6.3861399 -2.797261
43.654461 -97.986443 -0.66794699
-4.7196503 -6.1864386 -2.7996097
-26.136955 -19.006628 -2.2559958
44.538002 -57.247822 -1.6132541
45.320145 -57.753433 -1.5779122
-3.9825563 -3.7692981 -1.5150876
-2.6977463 -3.9519005 -1.763577
-35.279182 -31.377878 -1.2531543
-8.1854343 -7.3487396 -3.3013313
-10.472496 -7.4549561 -3.0074697
1.3833811 -6.0124435 -2.8846102
25.145668 3.2892327 -2.4684219
44.666653 -54.801762 -1.6136185
45.17849 -54.931705 -1.6399894
9.2487831 -1.3908689 -1.8589056
-1.2293284 -3.3081088 -1.6592379
3.5785809 -3.7132232 -1.7885247
3.2445059 -3.729697 -1.7675617
30.753866 -30.736721 -1.2278142
-25.386936 -40.037876 -4.8392415
-7.9086342 -7.2498026 -3.2392795
36.467052 -89.967491 -2.5312297
30.039589 -89.911469 -2.5563755
23.749136 -89.627975 -2.5236893
33.470032 -89.684456 -2.5947552
31.678068 -90.52401 -2.4174428
20.820627 3.7596884 -2.3064735
44.711479 -52.293163 -1.6635774
-1.6964796 -3.2450268 -1.8171829
-29.17543 -34.859177 -4.6121063
-31.652908 -31.786739 -3.3199275
-6.305582 -7.4064875 -3.0792513
-4.7614355 -7.2131515 -3.2189214
-6.639185 -5.9252272 -2.739572
25.726343 4.2332931 -2.1395676
-41.535641 -35.123791 -1.8127456
-37.632111 -35.045143 -1.8613634
9.9120579 -49.11763 -1.2453369
6.7113862 -3.2959549 -1.6534405
28.330639 -29.214596 -1.1925688
25.856537 -95.600105 -0.50308168
26.20171 -95.966133 -0.50892437
36.582771 -95.696648 -0.75589311
-8.7668324 -56.835823 -3.6666765
-34.222637 -29.140179 -2.73878
9.391098 -95.083061 -0.5098294
27.075912 4.7124529 -2.1406136
1.5337358 -2.5527687 -1.7674475
28.445135 -28.199568 -1.4389911
24.871731 -95.47596 -0.66668212
25.176311 -95.303848 -0.9416064
25.860764 -95.161026 -0.90019691
26.236742 -95.175163 -0.81650496
27.385208 -95.212997 -0.87838113
30.702366 -95.278244 -0.71542323
32.453201 -95.073898 -0.8538534
33.715714 -95.149292 -0.68938756
34.706005 -95.052032 -0.71459454
35.906281 -95.079895 -0.97375566
36.306862 -95.28627 -0.88773811
9.5167513 -94.615883 -0.52471322
-27.805794 -16.7551 -2.2707906
-37.762833 -42.725739 -4.2889519
-6.2140961 -32.883354 -1.7461782
-20.740232 -11.945963 -1.5136013
-44.150318 -23.154942 -1.1702423
23.82336 -94.784447 -0.53279531
24.426201 -94.662979 -0.75410068
24.841002 -94.811691 -0.82540405
26.347315 -94.792778 -0.73036498
26.782793 -94.731506 -0.65539968
29.405315 -94.594345 -0.61933059
30.358717 -94.752831 -0.81436706
31.391973 -94.79277 -0.76407456
31.781342 -94.780586 -0.60125101
32.782627 -94.661369 -0.60328305
33.309975 -94.745667 -0.78211772
33.651791 -94.787048 -0.78685045
34.312748 -94.845497 -0.68126541
34.916168 -94.828873 -0.74088031
35.678047 -94.910889 -0.72967821
-23.847509 -40.390408 -4.7992415
-40.192844 -28.901945 -2.8317978
5.7157431 -1.2994785 -2.2228866
-15.032356 -14.222514 -1.9818478
-14.615263 -14.029572 -2.0885081
26.182758 3.8647785 -2.1538398
8.3277073 -1.9607886 -1.8199095
-5.4551363 -4.4542141 -1.4956279
28.151459 -91.4114 -1.3919992
1.7431271 -0.83181703 -1.1615367
2.528641 -0.77160132 -1.210673
13.062982 -47.608952 -0.90949655
23.842991 -94.204948 -0.59971845
24.059662 -94.208099 -0.6566242
24.643341 -94.456184 -0.6877147
25.475986 -94.335266 -0.80568612
25.655689 -94.109314 -0.93922055
26.223883 -94.133514 -0.7245425
26.778538 -94.235168 -0.71477294
27.300314 -94.433617 -0.7537815
28.985348 -94.21386 -0.72966546
29.201574 -94.243599 -0.65010399
29.775459 -94.377052 -0.68919247
30.966179 -94.038528 -0.69202101
31.38497 -94.358719 -0.75418234
31.536488 -94.384315 -0.6320504
32.279572 -94.225677 -0.89167231
33.099586 -94.338379 -0.81183064
-28.739883 -34.757355 -4.7143722
-30.472998 -31.243567 -3.8652716
-40.712788 -31.254339 -3.5970495
-19.159885 -13.570521 -3.0591407
-31.340622 -27.626793 -2.6276217
8.5875549 -93.545143 -0.91162533
-25.56321 -15.93774 -2.4366198
18.63784 0.9893049 -2.1739998
19.484003 -88.546921 -1.3741839
-10.859529 -6.3409476 -1.5443696
23.142841 -20.846983 -1.486482
-41.333763 -20.356739 -1.1334944
22.301888 -93.617722 -0.64166641
26.764296 -93.726013 -0.71504927
27.169806 -93.723732 -0.68100423
27.662994 -93.973442 -0.98023266
29.229975 -93.99234 -0.6609534
30.73085 -93.914017 -0.738832
31.286373 -93.80584 -0.71402442
-32.323723 -25.838974 -2.8337831
20.791176 -89.279465 -2.6446314
7.5238562 -93.384895 -0.99832773
8.1796913 -93.002296 -0.97402239
8.7049332 -93.072823 -0.93815941
38.235241 -90.37056 -2.009928
-34.492699 -14.727503 -2.0931597
11.061135 -1.7648833 -2.2971287
54.712124 13.028438 -1.6118612
9.3180962 -0.33300185 -1.2092345
-23.817043 -9.4089384 -1.051151
21.697483 -93.190331 -0.65484983
22.248274 -93.238014 -0.62699676
-1.7643834 -0.24780236 -1.1066834
23.787344 -93.269882 -0.61823916
24.377308 -93.430557 -0.88433135
25.876949 -93.149841 -0.82252806
26.242516 -93.015282 -0.84698069
26.735416 -93.197845 -0.85383385
27.215004 -93.46788 -0.67864728
27.750881 -93.229004 -0.79686797
29.910721 -93.374748 -0.58874261
30.238405 -93.130264 -0.65002197
30.900436 -93.374657 -0.72789562
31.246965 -93.209152 -0.78003907
31.60363 -93.135925 -0.61697948
29.239319 5.7506232 -2.6362829
-30.595318 -24.514767 -2.8345382
-31.937351 -25.241556 -2.984596
-20.279297 -12.708744 -2.3903763
9.0875397 -92.919235 -0.9185881
-25.108866 -25.361229 -2.339061
8.4060326 -1.4008616 -2.1376119
46.654484 10.535744 -2.0262508
26.852865 4.7428923 -1.9396018
29.565895 -29.620466 -1.584774
9.5716877 -0.43914717 -1.8455436
-11.498549 -8.9871206 -1.3516185
40.905518 -90.667 -1.3036207
14.750126 0.76247144 -1.2538923
2.17274 0.79229301 -1.1223996
21.244329 -92.829132 -0.79170001
21.882298 -92.949493 -0.64265478
22.272186 -92.854919 -0.689412
22.568285 -92.828987 -0.64704674
23.262732 -92.858276 -0.62966567
24.094872 -92.660286 -0.84951258
24.70587 -92.625237 -0.64629841
25.224798 -92.801979 -0.73117346
25.682278 -92.798668 -0.86903894
26.297979 -92.760681 -0.78659868
26.619734 -92.74675 -0.80561626
27.78334 -92.742599 -0.64997393
29.859396 -92.752457 -0.65337205
30.200661 -92.64946 -0.73743486
31.476452 -92.607399 -0.68101513
31.628662 -92.930725 -0.6405741
-32.434082 -30.241154 -3.6971445
-23.205236 -42.071171 -4.7916255
11.093861 -5.0657578 -3.0717413
-30.816353 -21.628838 -2.5865486
-2.6076117 -3.307518 -2.6612287
-1.6534859 -3.9564102 -2.5254166
22.135416 -89.306068 -2.4341087
-1.2559035 -3.6847811 -2.6252789
-29.009674 -16.722301 -2.0399408
-1.2470927 -3.5107682 -1.5140104
28.438267 -27.788595 -1.6958352
-36.769005 -13.598491 -1.0373751
-5.6935711 -33.339603 -1.5770742
15.802678 2.1311851 -1.3101774
6.8868761 1.2518346 -1.2509326
22.354055 -92.191734 -0.77778423
22.729771 -92.281502 -0.64901149
22.560665 -92.142136 -0.66876817
23.078857 -92.320816 -0.70530415
24.646833 -92.241302 -0.76346701
25.211002 -92.318939 -0.89966917
25.695145 -92.250694 -0.75988668
26.252657 -92.342896 -0.824314
27.696989 -92.409744 -0.66798437
28.937424 -92.222092 -0.75276172
29.432709 -92.305832 -0.72699106
29.586172 -92.241722 -0.62153703
30.992573 -92.164398 -0.50760591
31.306179 -92.237259 -0.73231339
31.690844 -92.201927 -0.76884425
32.109703 -92.218857 -0.66347784
33.539013 -92.487289 -0.81647485
34.142204 -92.113434 -0.76920336
35.206287 -92.301041 -0.79535049
38.439548 -92.292374 -0.78805822
38.919388 -92.305344 -0.57686961
39.178715 -92.129745 -0.63748419
50.435711 -92.056335 -0.83522552
-27.302191 -35.478977 -4.8667383
14.725754 -88.40451 -2.2676249
-24.869486 -16.770382 -2.7469783
-20.051439 -9.3486805 -2.3439682
-1.0163035 -49.12944 -2.3665972
4.294734 -35.131332 -2.0189352
-29.944601 -20.117514 -1.691206
16.292931 1.7097942 -1.7748652
14.740744 1.2632411 -1.7879584
-21.445087 -10.293705 -1.2625183
-4.1609559 -4.7740965 -1.4569435
18.542572 2.4502466 -1.2722992
20.636456 -91.569389 -0.70322073
22.300753 -91.805557 -0.70968765
22.867161 -91.691055 -0.62927377
23.410427 -91.730873 -0.88970816
23.903049 -91.521881 -0.78737819
24.316517 -91.546539 -0.91091454
25.287548 -91.869865 -0.86200821
25.629055 -91.903076 -0.73753643
28.7778 -91.766495 -0.82095832
29.253851 -91.671387 -0.83415699
29.811356 -91.592896 -0.97422314
30.931923 -91.970154 -0.53501236
31.253864 -91.913803 -0.61515546
31.611547 -91.908714 -0.73503435
32.686256 -91.559006 -0.92059535
33.383026 -91.707504 -0.88601243
35.361237 -91.546715 -0.86453283
35.76273 -91.644562 -0.84977567
38.477852 -91.518753 -0.79159874
38.796242 -91.942276 -0.73879427
49.893768 -91.760674 -0.77215123
50.367943 -91.802704 -0.77428645
50.78289 -91.783867 -0.70893371
51.168213 -91.942146 -0.6136753
18.888451 -81.398499 -2.8780599
-22.967588 -13.288758 -2.8068316
15.221409 0.84088814 -2.6109552
-30.869986 -36.79649 -5.0762086
-6.0891051 -8.1815233 -2.4674859
-29.435547 -12.527004 -1.9917934
6.1356459 -49.573601 -1.6909901
39.332283 -92.125031 -1.7219021
9.0671024 -49.00996 -1.6250521
35.232117 -89.707443 -1.3151512
20.856522 -91.270851 -0.70621228
21.626976 -91.127106 -0.81827998
22.399908 -91.185013 -0.74171609
22.804211 -91.291847 -0.79055053
23.209297 -91.290764 -0.68480325
23.738426 -91.317345 -0.78483564
24.172522 -91.270454 -0.78115153
24.849327 -91.260857 -0.88496387
25.309412 -91.198875 -0.85485095
25.806828 -91.432175 -0.8770014
26.828342 -91.354111 -0.85077596
27.179163 -91.443512 -0.90845454
29.140354 -91.356712 -0.55557454
31.314449 -91.24691 -0.81428319
31.742317 -91.098061 -0.85360956
32.782078 -91.365944 -0.91633445
33.175919 -91.336449 -0.85453868
33.745792 -91.276756 -0.81988239
34.837624 -91.142838 -0.74052638
35.764183 -91.270958 -0.75242925
36.399731 -91.178749 -0.7515291
38.248131 -91.361588 -0.85901105
38.603191 -91.365128 -0.8552534
39.684311 -91.028732 -0.56054705
41.473366 -91.209641 -0.63704723
43.254753 -91.091248 -0.61481804
47.96151 -91.00605 -0.96010751
48.257633 -91.06176 -0.83227223
48.74094 -91.134964 -0.74417782
49.242657 -91.156075 -0.75846308
49.737022 -91.225357 -0.85579449
51.152924 -91.457764 -0.787543
-26.758307 -27.23686 -4.1357117
-38.180584 -41.68084 -3.9460585
21.093765 -89.533638 -3.7572029
-33.439499 -42.916462 -3.9601188
-40.423828 -42.042805 -3.5368309
-24.132938 -38.43816 -3.4956474
-29.231071 -23.197697 -5.7442446
24.777248 0.50629997 -3.4856114
25.156673 3.3962893 -2.5085683
10.803612 -0.37016773 -4.0051055
-14.058966 -82.106628 -2.3515489
-15.075958 -11.409849 -2.1126337
-1.4705262 -4.4457321 -1.2263348
24.473595 4.2632427 -1.202444
3.0976968 -1.7149558 -1.2114494
21.486553 -90.653503 -0.87919563
21.68914 -90.743744 -0.76386529
22.244926 -90.748802 -0.78940654
22.806675 -90.821144 -0.67054558
23.098064 -90.840759 -0.70058024
23.67251 -90.933029 -0.90798593
24.289213 -90.717621 -0.61708629
24.79723 -90.825356 -0.72406721
25.288603 -90.779549 -0.758614
25.659164 -90.907913 -0.62639058
31.161016 -90.75956 -0.75245523
32.644135 -90.732048 -0.82538033
33.72298 -90.616234 -0.89899111
34.242039 -90.653297 -0.77536511
34.89695 -90.992188 -0.58664262
35.24226 -90.742088 -0.67759025
35.876156 -90.892136 -0.5525493
36.26207 -90.684387 -0.60159582
36.600918 -90.878944 -0.70417571
37.317242 -90.666336 -0.84309036
37.712032 -90.813393 -0.79379964
38.209591 -90.663994 -0.7717672
38.802029 -90.754158 -0.65895981
39.29818 -90.524796 -0.67249912
39.98127 -90.513229 -0.66061634
40.202839 -90.747177 -0.63339299
41.42778 -90.767326 -0.74572372
41.773518 -90.649673 -0.78234047
42.007042 -90.554504 -0.80014598
43.738174 -90.699905 -0.64405525
44.250385 -90.764076 -0.78967339
44.643074 -90.816849 -0.77307326
45.122772 -90.697823 -0.84539664
47.425476 -90.878181 -0.99152613
47.751415 -90.941109 -0.97203845
49.158665 -90.992264 -0.88531822
-28.541632 -23.580008 -3.7423964
-32.071068 -27.945999 -3.744149
-28.18766 -22.268408 -3.7107918
-0.9191308 -90.324745 -0.52466571
-0.27168131 -90.470566 -0.96380705
-20.720375 -12.73785 -3.1605017
28.382854 5.2226467 -3.1102014
17.15324 1.1133213 -2.8522527
31.477013 5.297461 -2.6512523
-10.668965 -4.7282581 -2.084497
32.784973 6.0312309 -2.6963792
-39.309464 -56.663177 -2.4698277
0.061347485 -89.803314 -1.9210954
-24.510572 -12.225456 -1.7606852
41.740547 9.0656109 -1.5224857
21.977762 3.0504603 -2.2871237
17.927965 1.7756786 -1.9699297
-12.313461 -5.9106636 -1.2924294
42.204662 10.82084 -1.3249418
43.230713 10.431555 -1.406445
20.690277 -90.402802 -0.69643104
21.721884 -90.275291 -0.88302529
22.354568 -90.052147 -0.7234897
22.908974 -90.025139 -0.6562711
23.198303 -90.277428 -0.62133694
23.864347 -90.241516 -0.72419786
24.312527 -90.382385 -0.68866193
25.238445 -90.331894 -0.60409707
26.317841 -90.236649 -0.79833859
26.731853 -90.145935 -0.83274412
27.075531 -90.472519 -0.82269186
31.446156 -90.110123 -0.62074292
31.76729 -90.150459 -0.62877369
32.299122 -90.301239 -0.65438247
32.819607 -90.2967 -0.75424498
33.301331 -90.178085 -0.81832349
33.718548 -90.207138 -0.76996952
34.333668 -90.275139 -0.70706469
34.734703 -90.164215 -0.86078286
35.29232 -90.212433 -0.76163709
35.800285 -90.227036 -0.66304249
36.167873 -90.293655 -0.66911101
36.757469 -90.285698 -0.76797092
37.025841 -90.150658 -0.50299782
37.790833 -90.025291 -0.95573032
40.422646 -90.147202 -0.77742976
40.672184 -90.276093 -0.74955112
41.292023 -90.281525 -0.70741409
41.790276 -90.354515 -0.66805452
42.26746 -90.339165 -0.75122237
42.763748 -90.325554 -0.97234088
43.023422 -90.357025 -0.94987053
45.301285 -90.155266 -0.73858547
45.714966 -90.194229 -0.71426743
46.236633 -90.249527 -0.68418312
46.755333 -90.335373 -0.65543079
47.098927 -90.371475 -0.63619423
-0.75240684 -89.919968 -0.5311119
-0.4150691 -89.922318 -0.52141225
-11.912229 -8.6891766 -2.9083676
-26.31982 -19.564995 -3.0062728
27.3022 3.9336972 -2.6443131
49.260601 13.282 -1.6952065
16.255648 -89.619255 -0.94048631
51.503048 13.642454 -1.1974614
16.255648 -89.619255 -0.94048631
27.215157 -89.805725 -0.898628
21.273624 -89.718063 -0.80780047
24.483606 -89.809898 -0.67163002
22.705952 -89.809311 -0.73089194
23.271854 -89.68721 -0.82196414
23.573553 -89.63311 -0.77875584
24.702923 -89.824272 -0.73780322
25.230993 -89.702499 -0.87811887
25.752394 -89.722069 -0.7344057
26.233221 -89.788315 -0.78140795
27.248335 -89.925415 -0.89529335
27.667933 -89.893616 -0.94931394
28.275795 -89.578247 -0.96999186
28.727892 -89.594894 -0.79096752
29.234739 -89.700455 -0.8389765
29.648745 -89.627396 -0.80889022
30.864088 -89.706841 -0.79954827
31.273781 -89.702057 -0.78167403
31.708557 -89.773674 -0.8146196
32.24696 -89.645676 -0.67110348
32.758026 -89.773827 -0.8013975
33.333076 -89.782219 -0.63799733
33.743053 -89.72435 -0.73664713
34.211338 -89.800133 -0.65751213
34.821915 -89.583878 -0.64077967
35.119976 -89.762207 -0.6300289
36.316448 -89.783775 -0.62031686
36.855953 -89.750618 -0.84524614
37.264889 -89.883614 -0.9101218
37.707348 -89.87413 -0.77554953
38.223171 -89.923859 -0.98280489
-14.293529 -10.10737 -3.1142471
-21.325596 -10.003532 -3.244832
18.851273 -91.17366 -2.691257
-29.469715 -23.519096 -2.7713406
-21.345318 -8.1505604 -2.5434365
7.3625107 -89.130157 -0.51844311
-22.95682 -19.194334 -2.2946777
23.061275 -89.531792 -0.66919345
21.049854 -89.457779 -0.69130695
21.842617 -89.49379 -0.5958544
24.230873 -89.475838 -0.61218303
25.422436 -89.324524 -0.77436322
25.814621 -89.227737 -0.74976557
26.260181 -89.214912 -0.72221661
26.844999 -89.216278 -0.68599695
27.239552 -89.210777 -0.66143388
27.641874 -89.201195 -0.63627857
28.193165 -89.154381 -0.79966682
28.7208 -89.320091 -0.66689873
29.174377 -89.205254 -0.80973494
29.655586 -89.272293 -0.6824162
30.215328 -89.104698 -0.76190662
30.735535 -89.182236 -0.80116928
31.253305 -89.303589 -0.73046255
31.5597 -89.498405 -0.55324996
32.66515 -89.461807 -0.97483623
35.254913 -89.279839 -0.83524197
35.830467 -89.209015 -0.75344229
36.690628 -89.14003 -0.72723722
-38.878967 -36.189194 -3.213891
-16.24486 -9.8158731 -3.2403355
-13.118479 -9.7649822 -3.2506304
24.072216 -90.538467 -2.5432634
31.16021 -90.574699 -2.7259736
-11.070971 -9.1396961 -3.2124586
19.962418 -88.824692 -0.78038883
21.88398 -88.697525 -0.58923817
22.243164 -88.695122 -0.53982037
25.665834 -88.945274 -0.9275344
26.170195 -88.867813 -0.92591494
26.688435 -88.903481 -0.92355007
27.207182 -88.87413 -0.9220081
27.73214 -88.862793 -0.92056757
28.235966 -88.827255 -0.91966814
29.782713 -88.889191 -0.9794091
30.171741 -88.891663 -0.95999938
32.30331 -88.595612 -0.88117206
32.722 -88.665924 -0.86490196
33.231079 -88.75885 -0.84552425
36.295105 -88.925056 -0.7397998
36.547226 -88.982689 -0.73194283
-14.000931 -9.4348125 -3.3289962
-11.353124 -9.6496868 -3.3462217
-15.031149 -80.823792 -5.2582393
-37.021221 -35.19371 -2.9220252
-15.820836 -9.2192078 -3.1323583
-36.851784 -35.384956 -2.9647875
-30.491528 -36.206249 -4.4068146
-16.196037 -8.8177414 -3.2887943
-11.700686 -9.0858364 -3.3369789
-32.463615 -31.235895 -3.5924664
-36.659203 -34.605942 -2.8454168
3.3653631 -87.512512 -0.89158916
3.5201507 -87.594505 -0.85778666
6.8493609 -87.551231 -0.79883051
7.2473464 -87.540344 -0.72847003
7.6536102 -87.530678 -0.65664673
-4.2823801 -87.053429 -0.96278477
-3.7505589 -87.003349 -0.66321945
-3.4045393 -87.088898 -0.71054482
-2.8713748 -87.163971 -0.61471486
-15.794929 -8.7853231 -3.2072155
-21.564547 -73.521904 -5.3354726
-36.440201 -34.783291 -2.9032123
2.8752718 -87.470871 -0.97949862
3.1951623 -87.48568 -0.92319298
6.7221289 -87.441277 -0.8307519
-4.2369947 -86.989563 -0.74227571
-14.717377 -8.590415 -3.273664
-14.323235 -8.5490046 -3.4292791
-13.624479 -8.7326622 -3.2224212
-26.087162 -33.792004 -3.3585169
-10.733514 -8.6481934 -3.2892575
-12.687849 -8.5223351 -3.0154228
-41.205246 -34.097706 -2.7675066
-8.8964634 -7.970129 -2.6572278
-13.873753 -11.988436 -3.0610061
-4.973959 -86.210693 -5.6772971
-21.805952 -14.19861 -3.8700151
-33.602474 -32.532974 -3.4113059
-25.342697 -33.659569 -3.3445349
-42.235649 -33.107513 -3.0993614
19.308784 -90.026871 -2.7887797
-4.9293113 -7.759295 -2.5137124
13.139285 -89.537857 -6.7877893
-10.091601 -85.003204 -0.71657991
-19.089418 -13.666265 -3.718668
-21.558491 -31.983196 -3.8561695
-24.681681 -20.614557 -3.1434622
-39.904396 -33.289764 -2.7480068
-41.404957 -33.430016 -2.74506
24.89465 -90.274033 -2.7589061
-30.104557 -24.539742 -2.6966369
-14.945882 -14.024776 -2.7651622
1.7845318 -88.620476 -6.0358191
-11.230599 -84.531105 -0.89264441
-10.798763 -84.709785 -0.82591867
-10.394803 -84.898476 -0.76156998
-32.985653 -32.255695 -3.3121309
-9.6136227 -8.2608929 -3.1719317
-12.609993 -8.3571835 -3.2844043
-11.854028 -8.3618536 -3.0932236
-26.30788 -33.454079 -2.7429471
-22.816975 -19.783821 -2.7195237
-11.592018 -84.372253 -0.94932222
-11.374271 -84.275429 -0.90782833
-8.2783356 -84.227104 -0.53681844
-7.9724321 -84.344566 -0.52444208
-6.4056897 -8.2644567 -3.2801034
-9.2221317 -8.2821569 -3.4363887
-8.3477907 -8.2157621 -3.1845319
-5.2959151 -8.171175 -3.224057
-30.573162 -32.014538 -2.6183665
-40.562824 -32.404366 -2.7427461
-22.14502 -74.204529 -4.3407435
-19.281658 -76.726158 -5.2976942
-29.025183 -40.722885 -5.2533474
-11.011984 -83.419418 -6.1817207
-30.731792 -27.155584 -4.7255244
-14.407811 -10.729706 -4.2526703
-22.220901 -31.184605 -4.3281593
-19.8146 -31.109787 -4.1242323
-20.557287 -31.241411 -4.2568102
-24.343227 -20.458477 -4.2204218
-29.957855 -30.805222 -4.3714323
-16.580214 -10.016777 -4.202785
-13.540172 -82.401588 -5.9805698
-22.777443 -71.813194 -5.7473335
-13.190387 -82.623314 -5.9130588
-16.572819 -9.598115 -4.2794824
43.268829 -62.594059 -0.50312364
43.972542 -61.991299 -0.50115013
44.020813 -61.986713 -0.50621068
45.310448 -61.286377 -0.65833324
45.340866 -60.819279 -0.68232685
45.410889 -59.850964 -0.76538587
44.656834 -59.265038 -0.59209055
44.598587 -58.799412 -0.60704917
45.35601 -58.866142 -0.83987612
43.936134 -58.272751 -0.59765977
44.464352 -58.081932 -0.59525597
44.53186 -58.323437 -0.58601612
44.379921 -57.77879 -0.61769903
44.178871 -57.156723 -0.63654071
44.162987 -55.334763 -0.92422795
36.270382 -38.039192 -0.50929785
35.825394 -37.8009 -0.53455305
36.059498 -37.668961 -0.50695896
34.85424 -37.005459 -0.65612841
35.873192 -37.226997 -0.57021093
-43.101856 -36.724724 -0.94078445
-42.960331 -36.823734 -0.94784999
34.333416 -36.645363 -0.73741257
34.751347 -36.747936 -0.69721186
35.156612 -36.847477 -0.64010149
35.608044 -36.977169 -0.5971508
-42.888325 -36.010231 -0.99064255
33.857376 -36.37669 -0.81339169
34.155384 -36.20948 -0.66696477
34.90966 -36.186199 -0.53365839
35.853954 -36.134468 -0.574049
36.178871 -36.198093 -0.56369293
-43.138298 -35.815598 -0.59509701
-42.716789 -35.720528 -0.98780131
33.133026 -35.664963 -0.97805715
33.801491 -35.697449 -0.74522674
34.281685 -35.690407 -0.71505928
34.717949 -35.654552 -0.6914643
35.241707 -35.816784 -0.7102468
35.787395 -35.796238 -0.59264964
36.170929 -35.625992 -0.55252194
36.795712 -35.995766 -0.50848389
-43.120365 -35.401852 -0.57207102
-42.576283 -35.441059 -0.98433518
32.848434 -35.150986 -0.71120137
33.232346 -35.21471 -0.70031226
33.762024 -35.221493 -0.72638685
34.240738 -35.307274 -0.70643538
34.731979 -35.250751 -0.68509436
35.380257 -35.250069 -0.59668934
35.694538 -35.216171 -0.60939515
36.213963 -35.238483 -0.53468555
32.854218 -34.721542 -0.70497906
33.289051 -34.769199 -0.72971278
33.719643 -34.805954 -0.70835263
34.27129 -34.82325 -0.68701571
34.754025 -34.751011 -0.75871795
35.248062 -34.730301 -0.74347013
35.735638 -34.771896 -0.58921272
36.175667 -34.969814 -0.55508947
-42.068699 -34.209023 -0.82483435
-41.603329 -34.085995 -0.6814599
31.803493 -34.071571 -0.74386549
32.19894 -34.194855 -0.77063721
32.728046 -34.331509 -0.65626484
33.23711 -34.216946 -0.77381474
33.708752 -34.2579 -0.77889389
34.163445 -34.341072 -0.60929537
35.248497 -34.321766 -0.73995966
35.729568 -34.290909 -0.53412044
36.069954 -34.374428 -0.50744534
-42.181183 -33.666283 -0.87196273
-41.693558 -33.590393 -0.66489244
-41.236198 -33.808395 -0.68285865
-40.392033 -33.892696 -0.72851324
31.228931 -33.633461 -0.80370975
31.751822 -33.890255 -0.74360245
32.296368 -33.750397 -0.81963223
32.844902 -33.743511 -0.84571576
33.251698 -33.779541 -0.79883069
33.628651 -33.681614 -0.71234965
34.204304 -33.707008 -0.71307552
34.662834 -33.737976 -0.91349125
35.153378 -33.69836 -0.73390424
-42.525105 -33.133549 -0.96141791
-42.222218 -33.222725 -0.77269661
-41.749741 -33.196384 -0.65017414
-40.207371 -33.154076 -0.56489259
30.89069 -33.059189 -0.93342161
31.139547 -33.148804 -0.88522768
31.810078 -33.220932 -0.82906502
32.358562 -33.263561 -0.8641597
32.727852 -33.273083 -0.87065327
33.233482 -33.323158 -0.80079252
33.713203 -33.491066 -0.7170496
34.24337 -33.458824 -0.55219078
-42.685863 -32.724422 -0.87427092
-42.219406 -32.752304 -0.75930488
-41.805309 -32.785522 -0.8734023
-41.358681 -32.840782 -0.85705012
-40.153759 -32.773949 -0.7213456
30.95549 -32.986702 -0.92870402
31.120449 -32.59597 -0.8867588
31.888494 -32.81601 -0.89824903
32.366177 -32.820835 -0.85259849
32.698715 -32.756332 -0.79376113
33.220425 -32.770218 -0.66799939
-43.156319 -32.283298 -0.5998292
-42.673386 -32.230518 -0.85458916
-42.490604 -32.422977 -0.60193634
-41.957344 -32.252377 -0.77345532
30.766592 -32.422348 -0.95167851
31.281404 -32.222343 -0.95354509
31.818975 -32.197662 -0.79319167
32.029034 -32.381828 -0.88240767
32.756908 -32.230293 -0.77616155
33.042713 -32.257099 -0.53097153
-43.290695 -31.754673 -0.61748534
-42.793221 -31.733332 -0.77509564
-39.378479 -31.856167 -0.86165422
-36.723167 -31.714556 -0.59010315
-30.825619 -31.668911 -0.54875606
30.310432 -31.757563 -0.91869831
30.564442 -31.585613 -0.99171281
31.095303 -31.545681 -0.79917765
31.817307 -31.720556 -0.67398518
32.126537 -31.757336 -0.89893502
32.640579 -31.764923 -0.60910177
-43.142189 -31.237106 -0.78674877
-42.886414 -31.330299 -0.83366829
-36.908424 -31.32102 -0.81375003
-36.129578 -31.019609 -0.82354474
-35.479713 -31.070656 -0.58633906
30.764748 -31.260489 -0.94066405
31.049103 -31.36068 -0.81227827
31.931877 -31.081285 -0.66245222
32.55117 -31.480764 -0.60700417
-43.143684 -30.732256 -0.85049248
-42.904987 -30.724325 -0.88609707
-37.052872 -30.57794 -0.80873346
-36.748337 -30.734598 -0.80580425
-36.156189 -30.950005 -0.70624685
-35.764675 -30.730215 -0.61249566
-35.374809 -30.887966 -0.65019816
-34.941158 -30.824736 -0.67916477
30.351772 -30.548697 -0.87559223
31.44788 -30.921307 -0.9539938
32.022926 -30.861267 -0.64634347
-43.808601 -30.192741 -0.85690689
-43.29908 -30.193476 -0.8517794
-40.748837 -30.226835 -0.96865106
-36.83844 -30.106998 -0.87519836
-36.320988 -30.264038 -0.77656573
-35.704826 -30.45237 -0.70009005
29.818207 -30.06509 -0.93691778
31.484158 -30.060837 -0.63684559
31.585964 -30.097187 -0.62255478
-43.677841 -29.714216 -0.87910455
-43.362175 -29.765371 -0.84910583
-42.862999 -29.6933 -0.82969284
-40.464954 -29.93996 -0.52151912
-36.668785 -29.71195 -0.69692445
-36.074844 -29.819984 -0.71432686
30.86235 -29.754292 -0.79123437
31.011223 -29.595753 -0.67738199
-44.109955 -29.153994 -0.88716435
-43.66032 -29.217714 -0.85823053
-43.265556 -29.316128 -0.9542163
-42.936352 -29.397865 -0.76310229
-39.694668 -29.182251 -0.96426535
-44.171688 -28.726429 -0.89433706
-43.76022 -28.73616 -0.83418614
-43.312897 -28.765087 -0.82314539
-39.639889 -28.716595 -0.85892534
-44.088043 -28.123112 -0.57607305
-43.888382 -28.330505 -0.7902903
-41.176979 -28.329542 -0.94608045
-40.94529 -28.161926 -0.89440084
-39.671692 -28.284307 -0.84992808
-44.152412 -27.858541 -0.57111967
-43.860989 -27.822332 -0.88330114
-41.118801 -27.981459 -0.88923621
-40.963257 -27.953781 -0.98989367
-40.146461 -27.911999 -0.88371253
-39.153343 -27.877464 -0.93300694
-44.329498 -27.300953 -0.58439535
-44.479877 -26.907162 -0.59709817
-44.46307 -26.306402 -0.90876031
-45.093407 -25.511246 -0.62577677
-44.852089 -25.754433 -0.61721015
-45.258541 -25.216223 -0.64784414
-44.901695 -25.495193 -0.70187831
-45.587837 -24.528351 -0.51127028
-45.335232 -24.836792 -0.62484765
-30.724279 -24.807066 -0.73450887
-45.715618 -24.283039 -0.55484605
-45.375908 -24.474491 -0.62259698
-30.553268 -24.393469 -0.75704139
-30.308683 -24.27277 -0.7468127
-46.12804 -23.563969 -0.94537407
-45.582447 -23.908249 -0.55698109
-46.347649 -23.244019 -0.89295453
-45.327469 -23.036964 -0.84759653
-44.628609 -23.161114 -0.67676622
-34.871201 -23.207371 -0.54190302
-34.030804 -23.199503 -0.86764747
-33.311401 -23.219187 -0.9679361
-46.553459 -22.81739 -0.82815295
-45.314548 -22.876158 -0.8420614
-44.679634 -22.664387 -0.80142069
-44.476685 -22.568588 -0.77187479
-34.575035 -22.822918 -0.53533149
-33.899307 -22.765251 -0.83681864
-33.346371 -22.596258 -0.97355366
-32.989792 -22.711027 -0.89151669
-45.262283 -22.24448 -0.65947169
-44.743401 -22.311911 -0.77035427
-44.357208 -22.37409 -0.85984218
-43.850056 -22.147852 -0.76714253
-35.239998 -22.166388 -0.54673052
-34.904095 -22.373507 -0.64226788
-34.221497 -22.415836 -0.78344834
-33.419727 -22.101957 -0.8515414
-32.889442 -22.054518 -0.94572854
-45.742409 -21.621468 -0.7342875
-45.146469 -21.577362 -0.56612992
-44.798527 -21.743582 -0.80632466
-44.021412 -21.570187 -0.50881279
-43.937511 -21.809927 -0.52609378
-33.665283 -21.821823 -0.87780833
-32.928852 -21.739822 -0.90022194
-45.747952 -21.419973 -0.75614727
-45.196941 -21.294359 -0.68644613
-44.718842 -21.411989 -0.88279331
-46.131889 -20.69133 -0.69792318
-45.94558 -20.68553 -0.73632896
-45.365456 -20.712065 -0.70385981
-40.612404 -20.698788 -0.58631229
-40.218987 -20.730728 -0.74051094
-39.79126 -20.543098 -0.74454945
-39.14616 -20.595514 -0.63092679
-46.162796 -20.152779 -0.6634351
-45.609772 -20.297852 -0.71323109
-40.940865 -20.238022 -0.85890555
-39.846668 -20.37676 -0.68408811
-39.11441 -20.195093 -0.6525017
-28.740749 -20.147181 -0.54590046
-47.274719 -19.52869 -0.8103773
-46.064682 -19.843687 -0.69358242
-45.709763 -19.691381 -0.54072344
-29.089029 -19.67844 -0.79149693
-28.080688 -19.512266 -0.85870731
-27.7542 -19.793457 -0.68419117
-27.162495 -19.559034 -0.61733353
-47.32386 -19.389032 -0.78607804
-46.601765 -19.493132 -0.68513572
-46.287514 -19.216637 -0.5846855
-45.660912 -19.237873 -0.5078702
-45.459621 -19.267832 -0.56260324
-28.685442 -19.07457 -0.98902106
-28.116007 -19.289253 -0.66496933
-27.768505 -19.277855 -0.95271343
-27.33403 -19.335396 -0.75392759
-47.150993 -18.606157 -0.967623
-46.041161 -18.684278 -0.65256065
-45.128849 -18.670853 -0.57442665
-33.325985 -18.680864 -0.74598968
-29.627197 -18.924551 -0.97163439
-28.552328 -18.876722 -0.87811279
-28.237925 -18.521441 -0.87155104
-27.43549 -18.697237 -0.89473146
-45.60738 -18.154312 -0.69175863
-30.539999 -18.396711 -0.96469998
-30.057524 -18.298647 -0.95631278
-29.867893 -18.303902 -0.9839195
-29.499641 -18.428638 -0.99424458
-28.713257 -18.352413 -0.88881457
-28.343533 -18.35465 -0.9324339
-27.959871 -18.397646 -0.9500224
-46.0495 -17.904625 -0.50206703
-45.256287 -17.73807 -0.7326802
-44.768127 -17.720213 -0.65041238
-34.288738 -17.617332 -0.66663349
-33.893608 -17.891634 -0.76737022
-31.637671 -17.848295 -0.79386806
-31.359085 -17.705139 -0.9133023
-30.731152 -17.696526 -0.88031077
-30.158907 -17.834438 -0.97621697
-29.902431 -17.821095 -0.91210759
-29.201658 -17.863564 -0.9584021
-28.981422 -17.922483 -0.96314573
-28.141981 -17.911757 -0.98521739
-27.650017 -17.952431 -0.96086788
-45.667324 -17.262627 -0.68815589
-45.283123 -17.280281 -0.56291407
-44.765488 -17.306458 -0.7618798
-34.594021 -17.317066 -0.71512067
-34.258732 -17.255884 -0.78384
-33.74678 -17.1896 -0.80688035
-33.192524 -17.109484 -0.77257216
-31.665554 -17.205645 -0.77726173
-31.282763 -17.364307 -0.78791106
-30.848379 -17.199337 -0.79310119
-29.079521 -17.472048 -0.97372019
-28.295675 -17.211819 -0.93726844
-27.579678 -17.049831 -0.5183785
-45.228111 -16.796654 -0.63215041
-44.313023 -16.742096 -0.73278254
-34.739136 -16.696024 -0.78272235
-34.25621 -16.744474 -0.75603896
-33.861801 -16.941746 -0.8318429
-33.384102 -16.80167 -0.79664814
-30.83803 -16.957613 -0.74188876
-28.336975 -16.70558 -0.52239752
-27.656921 -16.762804 -0.53090578
-45.10833 -16.395658 -0.72288871
-44.853104 -16.211008 -0.65673661
-44.189541 -16.242083 -0.58419275
-35.099197 -16.313923 -0.74432403
-34.742279 -16.169994 -0.76967698
-34.27272 -16.185055 -0.72353446
-33.730858 -16.333143 -0.67979282
-33.417053 -16.345074 -0.80290735
-29.025703 -16.421234 -0.5244869
-28.035152 -16.486937 -0.53784817
-27.959751 -16.232552 -0.55122817
-44.246258 -15.621332 -0.66089356
-43.9753 -15.600047 -0.85649157
-42.72261 -15.588134 -0.62581265
-35.263565 -15.54113 -0.86442941
-34.762421 -15.950878 -0.88033265
-24.703587 -15.5111 -0.6397084
-43.815826 -15.413129 -0.85280299
-42.645947 -15.01286 -0.6067766
-42.165272 -15.19609 -0.53729928
-35.626808 -15.258726 -0.89214849
-35.250938 -15.28988 -0.89327657
-34.025555 -15.48112 -0.66275048
-24.941994 -15.01201 -0.51297349
-42.360222 -14.811148 -0.59541297
-35.135063 -14.843206 -0.93801785
-34.795502 -14.850837 -0.76877922
-37.431988 -14.056288 -0.77680624
-36.956932 -14.01313 -0.77368522
-35.66069 -14.495325 -0.81595826
-35.449856 -14.352596 -0.82126069
-34.066666 -14.282028 -0.91571307
-47.023193 -13.530406 -0.84459341
-37.754108 -13.847948 -0.73965132
-37.225319 -13.798828 -0.70963281
-36.723652 -13.788504 -0.59219986
-36.378403 -13.87244 -0.58388507
-31.818464 -13.603655 -0.9690727
-31.138577 -13.510529 -0.69927704
-24.04328 -13.74225 -0.92950821
-22.752422 -13.712296 -0.95203727
-49.042183 -13.31093 -0.96285218
-47.400108 -13.140186 -0.79703939
-37.370518 -13.336736 -0.99373293
-36.313034 -13.442367 -0.79288971
-35.726814 -13.195343 -0.54253256
-35.308464 -13.008993 -0.81306183
-34.739494 -13.118352 -0.60529608
-32.129906 -13.07481 -0.83685052
-31.774143 -13.240996 -0.9544456
-31.156528 -13.373424 -0.67840993
-30.787882 -13.137002 -0.57511139
-25.128134 -13.079202 -0.53687978
-24.668623 -13.173768 -0.55514008
-24.195065 -13.063766 -0.53606093
-23.749321 -13.307497 -0.75837857
-23.300816 -13.454165 -0.94967842
-22.730206 -13.208499 -0.97125965
-22.026495 -13.078943 -0.99532121
-35.749397 -12.698792 -0.74732375
-35.218414 -12.824512 -0.68125284
-34.89677 -12.704918 -0.74156415
-32.507278 -12.640224 -0.87766123
-32.222031 -12.96032 -0.77511287
-31.010393 -12.524837 -0.94272703
-30.16367 -12.577865 -0.96357512
-24.686872 -12.625583 -0.71943277
-24.288597 -12.597232 -0.67087501
-23.885895 -12.645277 -0.75542235
-23.04722 -12.574835 -0.92672598
-22.862202 -12.778012 -0.52989906
-22.334511 -12.66955 -0.87192655
-21.834555 -12.743896 -0.8383956
-21.452465 -12.585314 -0.58934683
-35.323547 -12.180826 -0.72363573
-32.589996 -12.193968 -0.85648417
-32.150467 -12.104304 -0.63483638
-31.805241 -12.128554 -0.69960678
-31.465088 -12.290318 -0.60688937
-30.93088 -12.32984 -0.75257438
-25.159306 -12.134612 -0.76479501
-24.769464 -12.113912 -0.68824106
-24.368366 -12.157194 -0.67329872
-23.970064 -12.045614 -0.58244175
-23.246035 -12.305488 -0.95811534
-22.673813 -12.277596 -0.7557475
-22.1998 -12.237835 -0.84691262
-21.768461 -12.239154 -0.74052918
-21.29104 -12.29638 -0.84342921
-20.73263 -12.29226 -0.93810004
-32.682266 -11.871939 -0.85889268
-32.213459 -11.784329 -0.68739474
-31.743509 -11.864716 -0.62880534
-31.202339 -11.653804 -0.91479683
-30.761749 -11.586559 -0.75422519
-30.218494 -11.783792 -0.59404719
-25.707977 -11.67013 -0.79999828
-25.160057 -11.811589 -0.69558352
-24.793358 -11.76193 -0.6632005
-24.412836 -11.948151 -0.64254105
-22.744169 -11.738643 -0.90242875
-22.288668 -11.760503 -0.78650039
-21.706198 -11.723456 -0.81472862
-21.186144 -11.708536 -0.87951648
-33.557343 -11.154171 -0.72106278
-33.127384 -11.473383 -0.5671078
-31.123976 -11.435993 -0.85716534
-30.705412 -11.229959 -0.67421007
-30.223261 -11.311544 -0.61829048
-29.482676 -11.322029 -0.94567478
-25.552958 -11.482665 -0.64659739
-25.217611 -11.193218 -0.62377185
-24.729849 -11.333694 -0.69989043
-24.28162 -11.045851 -0.85259926
-22.675299 -11.247893 -0.67337769
-22.282564 -11.237823 -0.74194175
-21.745983 -11.292509 -0.7718308
