# .PCD v0.7 - Point Cloud Data file format
VERSION 0.7
FIELDS x y z
SIZE 4 4 4
TYPE F F F
COUNT 1 1 1
WIDTH 1488
HEIGHT 1
VIEWPOINT 0 0 0 1 0 0 0
POINTS 1488
DATA ascii
50.328144 -90.989075 -2.5136662
-3.3333821 -89.232132 -2.128376
-2.4390352 -89.397209 -2.3621266
-1.839339 -89.712692 -2.4754272
-0.084629536 -89.912659 -2.1295753
0.70014918 -89.070175 -2.2644749
1.4519998 -89.302551 -2.4063115
2.6008635 -89.21611 -2.5267816
3.4757738 -89.357597 -2.5833056
4.5240579 -89.373611 -2.4663985
5.5011597 -89.563797 -2.4350483
6.455039 -89.503784 -2.471781
7.4886017 -89.560326 -2.5538914
8.4902163 -89.640244 -2.4576697
9.5009384 -89.459457 -2.4689622
10.544468 -89.478485 -2.4641504
11.370787 -89.506783 -2.4747548
12.533469 -89.58535 -2.4033155
13.468674 -89.605301 -2.4093711
14.508712 -89.648834 -2.3076313
15.433112 -89.752663 -2.3604808
16.52548 -89.649574 -2.4008043
17.409853 -89.713287 -2.5366709
18.49688 -89.686783 -2.4458914
19.473261 -89.798927 -2.4607444
20.331812 -89.846664 -2.4336278
21.725266 -89.821678 -2.3316607
22.384672 -89.697998 -2.3882291
23.446341 -89.757286 -2.3679631
24.572216 -89.493683 -2.3440654
25.492647 -89.467255 -2.3209343
26.215965 -89.788666 -2.1618366
27.786652 -89.408928 -2.2761133
29.721039 -89.197182 -2.6145389
30.23073 -89.320801 -2.3309145
31.523865 -89.69281 -2.0320237
32.357185 -89.349899 -2.4121101
33.217552 -89.000473 -2.8106456
34.974785 -89.415596 -2.9379489
35.601662 -89.082764 -2.5573769
36.487114 -89.238335 -2.2698824
37.328457 -89.252357 -2.343972
38.410385 -89.580605 -2.5312061
41.630142 -89.601006 -2.6161442
-3.22509 -88.467987 -2.2739811
-2.5852752 -88.070457 -2.3930526
-1.2344337 -88.095367 -2.9859457
-0.2470168 -88.305244 -2.3382277
0.55083281 -88.313515 -2.3370321
1.567552 -88.328407 -2.5432398
2.5916159 -88.468742 -2.5942214
3.472254 -88.634293 -2.4916186
4.4702182 -88.545723 -2.4448483
5.437211 -88.354912 -2.6584256
6.5249867 -88.462006 -2.7193646
7.3453569 -88.520798 -2.6697211
8.7971144 -88.722824 -2.3903534
9.340395 -88.747063 -2.4456642
10.509926 -88.590683 -2.8599463
11.435272 -88.671883 -2.6373656
12.44049 -88.613144 -2.5718782
13.483824 -88.505478 -2.6254339
14.45785 -88.500961 -2.6772823
15.503583 -88.622787 -2.7087905
16.639641 -88.79641 -2.3750966
17.47193 -88.741821 -2.3897343
18.354309 -88.674965 -2.4468353
19.275011 -88.632607 -2.421725
20.875179 -88.479523 -2.7035098
21.571564 -88.558823 -2.4285614
22.242537 -88.620522 -2.2473044
23.595961 -88.454933 -2.4743731
24.542542 -88.496368 -2.4699733
25.460552 -88.579178 -2.2684205
26.582016 -88.850174 -2.2901697
27.425329 -88.558319 -2.2028794
28.532484 -88.620972 -2.1569421
29.592751 -88.560013 -2.0714712
30.342758 -88.671906 -2.7443502
31.556372 -88.606361 -2.9100537
32.487152 -88.684425 -2.6986771
33.57415 -88.720444 -2.3771391
34.496368 -88.810143 -2.2171173
35.501713 -88.962143 -2.115139
44.990009 -88.910179 -2.0634975
45.252586 -88.945946 -2.0199409
-6.5095882 -87.308365 -2.2035818
-5.6606874 -87.550568 -2.0989051
-4.0360556 -87.777451 -2.2519789
-3.4161623 -87.620834 -2.4082956
3.1122868 -87.616798 -2.4079764
-1.566258 -87.395531 -2.5243449
-0.30095497 -87.462585 -2.7160656
0.60005134 -87.766663 -2.6227529
1.4653317 -87.792831 -2.5014791
2.548856 -87.790741 -2.5852497
3.5743539 -87.413467 -2.7615201
4.6190052 -87.827858 -2.7166488
5.4264617 -87.828941 -2.6444502
6.300714 -87.774117 -2.8228791
7.0673399 -87.722092 -2.8283885
9.6780157 -87.685936 -2.4402835
10.300941 -87.735741 -2.440593
23.879711 -87.984238 -2.7841444
24.632574 -87.962433 -2.6742527
25.149109 -87.941002 -2.5992718
28.942753 -87.884705 -2.0831919
29.313438 -87.875237 -2.0330415
-12.157462 -86.011757 -2.2153196
-7.1242685 -86.826424 -2.294457
5.4747925 -88.153389 -2.3690693
-2.2288251 -86.52639 -2.3643172
5.5066161 -86.99704 -2.5179079
-1.6539781 -86.601875 -2.5299697
-0.51849073 -86.920837 -2.9190636
0.63249969 -86.663116 -2.6758449
1.6194671 -86.745934 -2.7170835
-13.407666 -85.225624 -2.3536129
-12.577026 -85.732338 -2.262239
-11.11981 -85.747704 -2.1917887
-8.309721 -85.047943 -2.6474016
12.109299 -87.296753 -2.3382263
-0.48420036 -86.162354 -2.4782212
-1.5441233 -85.973549 -2.3882563
-4.8319125 -83.551376 -2.4112968
-2.4499974 -85.93811 -2.2663088
-1.7023318 -85.857567 -2.6149604
-29.854239 -31.55324 -3.7076278
-27.539536 -31.781811 -3.6000011
-19.667065 -14.106576 -3.8499694
-12.222219 -84.072021 -2.6312611
-6.1273236 -85.67836 -2.6059268
-9.4729538 -84.510887 -2.5682366
-2.2519634 -86.780045 -2.6139605
-9.4472532 -81.764397 -2.4671333
-1.7087756 -85.665825 -2.4378834
-4.9047942 -84.712097 -2.3523381
-3.9709804 -84.104042 -2.0831785
19.128632 -84.073036 -2.4237161
-29.963005 -32.375816 -4.0467963
-26.913113 -22.60347 -4.3216062
-28.339275 -21.980619 -3.417793
-19.739088 -28.440344 -3.6473711
-13.73837 -78.897835 -2.7912862
-11.531709 -83.680962 -2.7463844
-10.114034 -83.424057 -2.3510599
-9.7830315 -83.647453 -2.2696671
-7.6968241 -83.813705 -2.94526
-4.9753866 -83.782494 -2.709229
18.624561 -83.163422 -2.5799358
19.478901 -83.080429 -2.581769
-30.246212 -34.171337 -3.8940592
-24.316765 -40.554424 -3.9166977
-13.474469 -82.475563 -2.6282601
-12.536694 -82.726227 -2.303591
18.73345 -82.645859 -2.5331726
19.590414 -82.536964 -2.6411698
20.501226 -82.525299 -2.6663437
21.436625 -82.4207 -2.6058795
22.347414 -82.438148 -2.4270101
-34.609299 -42.241196 -3.8884149
26.156437 -90.378342 -3.3175511
-15.143138 -81.186279 -2.8285575
-14.542125 -81.637611 -2.7866309
18.509741 -81.529869 -2.6045806
19.687357 -81.542023 -2.6634562
20.515285 -81.677444 -2.7060819
21.418501 -81.609444 -2.6854987
22.432232 -81.459808 -2.6399064
23.273993 -81.302078 -2.4654129
-17.115479 -80.05304 -2.4798856
-15.480754 -80.667313 -2.9132771
20.058182 -80.858391 -2.8290448
21.698662 -80.76416 -2.7607079
22.46981 -80.614372 -2.7797637
23.366062 -80.595367 -2.7499921
-18.139383 -79.052811 -2.5684261
-17.624868 -79.535011 -2.5378046
22.739855 -79.632423 -2.9257474
23.466379 -79.459991 -2.8411527
24.440994 -79.589844 -2.6602612
25.173807 -79.131104 -2.6717207
-18.253275 -78.649956 -2.6300771
-17.604118 -78.754105 -2.691678
23.498894 -78.712234 -2.8165655
24.280914 -78.503624 -2.8170581
25.587873 -78.18248 -2.7974324
-19.042393 -77.105186 -2.6889033
-18.670597 -77.552139 -2.6441195
24.506046 -77.757698 -2.8147187
25.332163 -77.610672 -2.8276017
-13.001608 -83.226524 -3.1180241
9.5277004 -89.660072 -3.4900489
-19.521397 -76.488106 -2.5367274
-18.995411 -76.99279 -2.5406032
24.609158 -76.78418 -2.9060922
13.772688 -90.338821 -4.2356071
-25.049482 -16.058109 -4.2964449
-21.091892 -42.737854 -4.0317826
-20.390686 -75.578163 -2.4592378
-20.563278 -13.400988 -4.2995768
-32.191223 -30.260849 -4.3914471
-28.296112 -35.58493 -4.6423903
-23.546499 -30.449921 -4.4911895
-31.37825 -34.033657 -4.5989828
-24.051796 -72.068398 -2.2414236
-23.753574 -72.42263 -2.2073965
-24.560654 -71.51133 -2.293926
24.350212 -79.562233 -3.2857585
-25.208124 -34.520897 -3.7181833
-25.263451 -70.032822 -2.9849443
-24.914841 -70.96769 -2.374105
-24.547642 -28.431978 -3.8473868
-27.045141 -69.077583 -2.2972174
-26.828176 -69.311249 -2.3070707
-25.41835 -69.857285 -2.9930544
-27.236662 -68.482407 -2.3707049
6.2822514 0.063360929 -3.2421608
-29.567045 -67.006302 -2.765759
-27.636272 -67.863731 -2.4166579
-20.463001 -11.718878 -3.3003068
-37.931004 -40.450462 -3.7867582
-34.741333 -41.890388 -3.9237013
-30.031992 -66.069778 -2.8091464
-29.778982 -66.502991 -2.7874191
-18.58671 -11.378466 -3.3806827
-17.501904 -11.366308 -3.4881136
-30.369137 -65.693878 -2.8331354
-38.419708 -47.385292 -2.5751667
-38.291512 -46.831749 -2.6288199
-39.541355 -44.470871 -2.5837903
-36.222809 -44.197838 -2.7318065
-35.443634 -44.287994 -2.8028483
-34.81073 -44.328964 -2.6649961
-37.333641 -43.378265 -2.8206451
-36.410095 -43.681976 -2.7543285
-35.264713 -43.503296 -2.7834907
-34.57935 -43.990856 -2.6051867
-40.132359 -42.296413 -2.4934211
-39.375549 -42.268135 -2.6302607
-37.421329 -42.894497 -2.8123481
-35.310089 -42.893791 -2.763108
-34.555672 -42.930031 -2.7592144
-39.472843 -41.767574 -2.5568445
-41.388622 -40.121014 -2.6325116
-30.776262 -40.061573 -2.570425
-23.007757 -40.055252 -2.9063592
-22.634876 -40.206127 -2.9400923
-42.067707 -39.510094 -2.4849148
-41.692043 -39.542473 -2.6316392
-36.1534 -39.20932 -2.7158065
-33.291107 -39.401958 -2.7838457
-32.047489 -39.476955 -2.8984149
-31.349512 -39.774914 -2.7451036
-24.240026 -39.096664 -2.0619586
-23.220467 -39.384182 -2.4723415
-22.818489 -39.713181 -2.4473152
-43.074284 -38.07729 -2.6633425
-42.54063 -38.298557 -2.6462564
-41.79187 -38.388344 -2.4417472
-35.809509 -38.775158 -2.7129996
-33.143768 -38.638874 -2.781858
-32.681149 -38.618999 -2.6697228
-24.221092 -38.710106 -2.4945397
-23.556778 -38.805458 -2.3226767
-42.580799 -37.57811 -2.452704
-41.881115 -37.853455 -2.3426962
-35.415207 -37.639565 -2.7333617
-32.823826 -37.600204 -2.5941834
-43.163616 -36.487106 -2.8411217
-42.72879 -36.459839 -2.4035463
-41.689659 -36.178391 -2.4306381
-39.321613 -36.174282 -2.5364277
-35.350384 -36.292309 -2.1014092
-34.73629 -36.273853 -2.1415243
-32.537766 -36.759415 -2.6091175
-43.151749 -35.911758 -2.6729574
-42.282127 -35.907043 -2.3570852
-41.37875 -35.625229 -2.5971813
-40.882439 -35.080307 -2.5672131
-39.378742 -35.760494 -2.5533643
-37.303001 -35.429573 -2.1802869
-36.428318 -35.330837 -2.4317915
-35.732731 -35.76897 -2.0741303
-31.625456 -35.647541 -2.9842238
-42.197487 -34.274902 -2.5521049
-41.568306 -34.310287 -2.6228857
-40.51786 -34.508308 -2.5217793
-39.820404 -34.391777 -2.8161333
-37.16753 -34.794659 -2.0087085
-36.471233 -34.675465 -2.8849671
-35.786209 -34.87413 -2.0132599
-25.230791 -34.414112 -2.8065438
-42.169041 -33.516434 -2.473799
-41.73991 -33.573856 -2.5260894
-40.237518 -33.509644 -2.7075586
-39.813072 -33.617588 -2.5432653
-26.30788 -33.454079 -2.7429471
-43.159042 -32.45071 -2.3064528
-42.344124 -32.445038 -2.3857968
-41.653271 -32.519302 -2.4333577
-40.339645 -32.433178 -2.7211533
-39.901108 -32.310543 -2.7861958
-36.638233 -32.2216 -2.8340714
-34.391823 -32.3391 -2.8254139
-30.573162 -32.014538 -2.6183665
-28.658253 -32.444584 -2.4433553
-27.787758 -32.04356 -2.4228973
-21.346146 -32.565193 -2.174691
-20.839045 -32.23243 -2.1136618
28.479576 -32.237995 -2.0034275
29.341824 -32.664677 -2.0180755
-43.451721 -31.305367 -2.6404672
-42.49725 -31.655502 -2.2420087
-41.685951 -31.596783 -2.2679944
-40.442703 -31.737619 -2.6429145
-39.798889 -31.375181 -2.5144787
-37.165245 -31.206089 -2.4926414
-36.491577 -31.169258 -2.4479017
-35.475597 -31.49725 -2.7211649
-34.782784 -31.799988 -2.804028
-32.019886 -31.108385 -2.2641256
-31.40917 -31.174803 -2.7985129
-30.72607 -31.719408 -2.6396384
-27.903654 -31.691536 -2.7749052
-26.452986 -31.315111 -2.170846
-25.666954 -31.517502 -2.2853131
-21.591202 -31.607542 -2.340029
-20.765224 -31.731819 -2.1334925
-19.626169 -31.502581 -2.5157256
-18.951645 -31.315222 -2.6084194
29.951584 -31.960388 -2.0571599
-44.012264 -30.229939 -2.7894919
-43.573208 -30.639851 -2.6621575
-42.637775 -30.626781 -2.5133543
-41.883327 -30.003496 -2.2799101
-40.327374 -30.361309 -2.4340382
-39.844212 -30.368382 -2.3774281
-38.637447 -30.376539 -2.6298196
-37.216328 -30.595205 -2.5512712
-36.617874 -30.729259 -2.4234223
-35.459545 -30.442801 -2.4955146
-34.129959 -30.702118 -2.9464493
-33.002361 -30.595287 -2.965035
-32.494015 -30.229948 -2.8581975
-31.457777 -30.736118 -2.6969984
-30.866001 -30.869663 -2.5794382
-27.068798 -30.64213 -2.7663672
-26.643452 -30.388166 -2.1842883
-25.571762 -30.602016 -2.2851772
-24.958754 -30.370384 -2.2717943
-44.260448 -29.46838 -2.7700853
-43.296192 -29.022682 -2.7181468
-42.028114 -29.249908 -2.501888
-41.62722 -29.286589 -2.673924
-40.374458 -29.486506 -2.3415592
-39.44936 -29.643328 -2.3992462
-38.798702 -29.223831 -2.4663787
-34.246117 -29.52449 -2.802397
-33.053078 -29.853355 -2.8000052
-32.291527 -29.223282 -2.7072172
-31.539185 -29.204399 -2.5593767
-30.432734 -29.505692 -2.4284923
-26.735798 -29.786457 -2.7866855
-44.523415 -28.676559 -2.749511
-43.407909 -28.467213 -2.5760119
-42.217201 -28.857964 -2.5705421
-40.387226 -28.685049 -2.3604693
-39.443405 -28.541571 -2.3452005
-38.445274 -28.994774 -2.3736515
-34.469624 -28.595369 -2.0104768
-32.417839 -28.875229 -2.7714784
-31.837391 -28.698879 -2.722713
-30.569704 -28.547678 -2.6471438
-20.374619 -28.105225 -2.7401042
-43.625759 -27.587742 -2.3326721
-32.04147 -27.096331 -2.6364093
-31.762741 -27.124172 -2.7798529
-30.300003 -27.442743 -2.6905956
-29.999825 -27.592747 -2.7556636
-25.222013 -27.121191 -2.2857893
-24.822149 -27.572134 -2.5872488
-20.253853 -27.929878 -2.0603116
-19.691069 -27.450106 -2.4033248
-32.143131 -26.527475 -2.5212159
-31.837452 -26.557709 -2.6247022
-30.227106 -26.639837 -2.8144336
-29.974369 -26.286306 -2.8354087
-25.366512 -26.494551 -2.3119123
-24.768532 -26.150108 -2.989543
-21.24122 -26.435436 -2.5998132
-20.360268 -26.33853 -2.4277327
-19.827787 -26.704601 -2.2530639
-33.330727 -25.555704 -2.4719119
-32.445641 -25.424316 -2.8107433
-31.337337 -25.456709 -2.9008584
-30.428617 -25.55759 -2.7595913
-29.863609 -25.63426 -2.8880403
-25.117626 -25.43294 -2.3346262
-24.675365 -25.514467 -2.6597474
-33.442673 -24.338835 -2.4447045
-32.653458 -24.462246 -2.3466723
-31.349178 -24.354258 -2.7567914
-30.510695 -24.400877 -2.829258
-29.836475 -24.55879 -2.8259249
-28.907526 -24.08111 -2.9107265
-24.868649 -24.846285 -2.3430028
-33.095039 -23.728533 -2.0349646
-32.672359 -23.558725 -2.2848377
-31.245394 -23.397177 -2.4323239
-30.491467 -23.590252 -2.6389217
-29.491812 -23.380987 -2.780566
-28.546848 -23.505676 -2.7176065
-27.518169 -23.713116 -2.336164
-47.242371 -22.292702 -2.642571
-46.734821 -22.649216 -2.7811069
-32.075012 -22.726158 -2.3050897
-31.279869 -22.658794 -2.5768108
-30.461311 -22.438854 -2.5342803
-29.592146 -22.506111 -2.6959193
-28.356209 -22.229452 -2.8886433
-27.542841 -22.821173 -2.9491351
-47.532894 -21.477551 -2.27527
-46.776127 -21.543793 -2.4343128
-45.187744 -21.647577 -2.9262397
-43.501274 -21.465508 -2.037951
-42.751259 -21.169004 -2.0861089
-32.190346 -21.561447 -2.8057404
-31.556545 -21.698729 -2.6392956
-30.40239 -21.557865 -2.4163663
-29.336823 -21.54731 -2.5343778
-28.570164 -21.411106 -2.7626038
-27.47073 -21.315418 -2.8732958
-43.230961 -20.4781 -2.2098012
-42.590233 -20.626163 -2.1788874
-41.498451 -20.842075 -2.0369787
-40.867382 -20.318844 -2.0840435
-39.267841 -20.376265 -2.0582571
-30.110954 -20.990162 -2.1763067
-29.247038 -20.55615 -2.2774589
-28.385038 -20.455528 -2.4705906
-27.591354 -20.363523 -2.6006262
-26.859486 -20.232494 -2.3513496
-47.369301 -19.296635 -2.4289277
-42.252605 -19.927416 -2.0346212
-39.928299 -19.623264 -2.0566568
-38.636158 -19.669514 -2.0215979
-34.416889 -19.205585 -2.0847678
-33.275112 -19.196945 -2.1370699
-29.444477 -19.594313 -2.4164367
-28.252428 -19.572609 -2.6706238
-27.621881 -19.58497 -2.5306354
-26.547146 -19.254261 -2.576165
-47.450256 -18.598953 -2.4035003
-34.225067 -18.544334 -2.1374419
-33.943157 -18.955881 -2.1094949
-31.295868 -18.036606 -2.5068583
-30.778917 -18.101727 -2.4830897
-29.156584 -18.36433 -2.3926067
-28.418076 -18.373049 -2.532721
-27.397219 -18.374363 -2.5783112
-26.639759 -18.506313 -2.5902328
-25.892902 -18.414974 -2.8313818
-37.456711 -17.684877 -2.4194479
-34.262966 -17.015524 -2.4017067
-31.156757 -17.454905 -2.4694166
-30.536993 -17.573036 -2.4759855
-29.344711 -17.797447 -2.6272831
-28.418587 -17.599312 -2.5175512
-27.515181 -17.561123 -2.6576302
-26.514246 -17.482262 -2.6717148
-25.692856 -17.128101 -2.792376
-46.224297 -16.393341 -2.4284382
-37.404549 -16.517803 -2.1002674
-35.156643 -16.01437 -2.1028547
-34.371265 -16.590918 -2.4077663
-33.473633 -16.189518 -2.6483183
-32.564964 -16.216785 -2.6958168
-31.089983 -16.965281 -2.8375168
-30.178501 -16.420231 -2.587481
-29.272694 -16.474224 -2.5425146
-28.421631 -16.40613 -2.5642905
-27.578621 -16.561043 -2.5277362
-26.449411 -16.57822 -2.5768874
-25.755365 -16.495899 -2.5916939
-24.684793 -16.145226 -2.5530148
-46.002171 -15.870437 -2.4042234
-36.241947 -15.250526 -2.1270633
-35.253319 -15.531457 -2.0887945
-33.066433 -15.778023 -2.7761118
-32.728161 -15.609064 -2.7556379
-30.401375 -15.896228 -2.5961797
-29.358246 -15.741173 -2.6216326
-28.444559 -15.598819 -2.6305559
-27.524633 -15.725845 -2.5743947
-26.405832 -15.674172 -2.4815478
-25.33807 -15.409822 -2.6009367
-24.633614 -15.477198 -2.6119242
-23.645424 -15.310534 -2.3036985
-20.959854 -15.148022 -2.8683825
-35.621273 -14.519413 -2.0160165
-34.506046 -14.660067 -2.1336565
-29.151379 -14.955612 -2.9568846
-26.007124 -14.744473 -2.0827336
-25.219433 -14.712317 -2.4439111
-24.490728 -14.491995 -2.5506086
-23.530569 -14.416659 -2.5001788
-22.489897 -14.401145 -2.4424269
-21.639 -14.057179 -2.5733838
-20.451674 -14.5954 -2.6159918
-19.972633 -14.074673 -2.8301442
-37.441219 -13.365477 -2.2029586
-31.316147 -13.384878 -2.6897736
-30.358103 -13.060668 -2.1770391
-25.008593 -13.86653 -2.6038048
-24.139324 -13.750689 -2.544255
-23.464909 -13.506641 -2.5266588
-22.622887 -13.459962 -2.5177665
-21.568991 -13.402724 -2.8315918
-20.655884 -13.180272 -2.9667325
-19.769173 -13.875386 -2.8226583
-38.452568 -12.593201 -2.104744
-33.135654 -12.51004 -2.683094
-32.543877 -12.209384 -2.5562272
-31.538853 -12.6696 -2.6812882
-30.558615 -12.395694 -2.1056876
-24.294296 -12.591795 -2.4550693
-23.367872 -12.562 -2.5454912
-22.331121 -12.445916 -2.508713
-21.624456 -12.334939 -2.466135
-20.503777 -12.40523 -2.7087712
-19.61878 -12.296649 -2.7896516
-32.421379 -11.742114 -2.3296218
-31.487597 -11.427255 -2.1611032
-29.994904 -11.779344 -2.0450373
-26.252819 -11.389401 -2.6973879
-25.381025 -11.574734 -2.3971539
-23.525555 -11.45241 -2.3194833
-22.356188 -11.538764 -2.4211133
-21.57781 -11.557224 -2.4251888
-20.414097 -11.512763 -2.5996575
-19.481705 -11.395914 -2.6744711
-18.527691 -11.30959 -2.6098447
-17.661879 -11.026674 -2.5710866
-15.134034 -11.046859 -2.1161659
-14.415769 -11.2739 -2.3850636
-29.179638 -10.472393 -2.7486885
-28.760527 -10.255903 -2.1881268
-25.274624 -10.852375 -2.6391392
-23.249334 -10.715884 -2.3332031
-22.470581 -10.774549 -2.408978
-21.506723 -10.464947 -2.4049277
-20.44787 -10.528737 -2.5072069
-19.506721 -10.546604 -2.4959004
-18.478546 -10.556913 -2.4790204
-17.426712 -10.449882 -2.5804911
-16.610813 -10.273458 -2.670855
-15.767212 -10.253681 -2.7373216
-14.511955 -10.733837 -2.6811142
-13.4125 -10.199888 -2.6047246
-28.689819 -9.4405336 -2.0334568
-23.190531 -9.5351124 -2.3104396
-22.361164 -9.4252186 -2.2362928
-21.417694 -9.6103354 -2.3177636
-20.579441 -9.746995 -2.353646
-19.568027 -9.645422 -2.3641641
-18.324217 -9.6491041 -2.4367135
-17.469109 -9.5658884 -2.5300765
-16.44145 -9.5655384 -2.5868366
-15.697086 -9.4257154 -2.6092262
-14.761394 -9.243084 -2.56284
-13.439472 -9.6678667 -2.5878158
-12.542538 -9.4993935 -2.5570164
-11.777761 -9.3087006 -2.5255535
-23.306198 -8.504921 -2.2307887
-22.512119 -8.7990856 -2.3033063
-21.650732 -8.3721085 -2.4847734
-20.66003 -8.2707081 -2.4610066
-19.016201 -8.2576962 -2.2962832
-18.439381 -8.598134 -2.2474053
-17.451759 -8.5474968 -2.4338307
-16.356934 -8.6244764 -2.4150479
-15.525013 -8.5674906 -2.4246163
-14.640913 -8.2862644 -2.2722239
-13.76854 -8.2713108 -2.3719397
-12.495562 -8.3571339 -2.5972323
-11.513631 -8.4270048 -2.6436563
-10.535869 -8.4435158 -2.6427436
-9.6037064 -8.3625851 -2.6612408
-8.5105352 -8.3298492 -2.5212328
-7.4647765 -8.1746168 -2.8163936
-6.4970069 -8.4244995 -2.6274664
-5.5439849 -8.3933706 -2.6427534
-4.6500864 -8.344656 -2.7794476
-3.302161 -8.062809 -2.789175
14.546076 -8.5244551 -2.8129082
-22.192921 -7.797236 -2.3703578
-21.423819 -7.7359667 -2.6287127
-20.706224 -7.7460208 -2.4593468
-18.178345 -7.6347427 -2.4230914
-17.525211 -7.6125131 -2.4795341
-16.391399 -7.6141376 -2.3908355
-15.310203 -7.6353369 -2.3784757
-14.522519 -7.549058 -2.3364835
-13.587187 -7.3423271 -2.1676829
-12.410906 -7.5089288 -2.3763275
-11.299955 -7.690763 -2.5134087
-10.600083 -7.5501609 -2.4743977
-9.3678417 -7.4534345 -2.39166
-8.5747013 -7.6134176 -2.4208832
-7.4751983 -7.5566325 -2.5924165
-6.3580785 -7.3229656 -2.7004941
-5.697226 -7.2620711 -2.7133737
-4.4278264 -7.2911263 -2.6443911
-3.5762129 -7.4352217 -2.780725
-1.315708 -7.0076504 -2.6452703
-0.37805319 -7.0990915 -2.870388
0.6695857 -7.1208935 -2.8204212
1.2429799 -7.1780777 -2.1817098
2.4099803 -7.1011362 -2.1313295
4.6083884 -7.118371 -2.9917107
13.911743 -7.3414183 -2.2590795
14.361121 -7.3539505 -2.9096947
15.05583 -7.2502432 -2.9742146
-18.805035 -6.7222214 -2.6869359
-17.883358 -6.9076958 -2.6761818
-16.382217 -6.5598001 -2.2872429
-15.141065 -6.5877414 -2.3154755
-14.402161 -6.645925 -2.3348103
-13.656023 -6.5786133 -2.2614021
-12.15239 -6.6498027 -2.4119682
-11.492292 -6.3524776 -2.2758043
-10.483027 -6.48385 -2.3352356
-9.3197556 -6.5844302 -2.3740487
-8.526103 -6.534389 -2.3001211
-7.5467668 -6.3032308 -2.421325
-6.2477713 -6.5470896 -2.5446758
-5.5707932 -6.4557672 -2.6056263
-4.4294634 -6.4760418 -2.6610281
-3.6154873 -6.4836845 -2.7375786
-2.5418186 -6.3377738 -2.7774785
-1.4369695 -6.357985 -2.7516003
-0.54944193 -6.2797532 -2.8601694
0.4984268 -6.467391 -2.8203073
1.5376563 -6.3209434 -2.6376052
2.3321362 -6.2845211 -2.4544702
6.5416269 -6.0443015 -2.9076941
13.522763 -6.4950342 -2.9972324
14.350087 -6.5840631 -2.9525359
15.050776 -6.844902 -2.964622
-14.658845 -5.7302403 -2.2805309
-13.857815 -5.8946242 -2.3673627
-12.73811 -5.3835983 -2.2316961
-11.447523 -5.6741819 -2.2955184
-10.563719 -5.6173573 -2.1862392
-9.5584927 -5.7934318 -2.3130848
-8.4254799 -5.8225126 -2.275212
-7.4734879 -5.5808244 -2.3224349
-6.4531097 -5.6050811 -2.3628297
-5.4680505 -5.5832787 -2.3680212
-4.491889 -5.5557117 -2.4671121
-3.5067053 -5.4108477 -2.5540354
-2.5862815 -5.4746733 -2.6765649
-1.5248548 -5.5078778 -2.7187061
-0.46497634 -5.3909712 -2.702353
0.52945197 -5.4102192 -2.7574992
1.5254624 -5.3310275 -2.7921817
2.5059762 -5.2955966 -2.726799
3.345144 -5.2100444 -2.4561989
4.5775771 -5.1216645 -2.1093814
5.4353876 -5.5810671 -2.4785581
6.5580993 -5.4357548 -2.9556837
10.5658 -5.162219 -2.9510007
11.473087 -5.2275171 -2.9747119
12.361217 -5.2844849 -2.963331
14.646566 -5.9049606 -2.9921443
-15.235341 -4.1727428 -2.215466
-11.204319 -4.6290646 -2.085783
-10.133612 -4.8274512 -2.0832112
-9.1813889 -4.3483067 -2.0349169
-8.8056326 -4.3826823 -2.0641387
-7.3172636 -4.5368443 -2.1398432
-6.5324359 -4.5615711 -2.1189446
-5.4260807 -4.7652826 -2.2378109
-4.4017291 -4.7338095 -2.2909045
-3.3631015 -4.6561847 -2.3264787
-2.5671682 -4.5385494 -2.3433666
-1.5027587 -4.4506087 -2.3544548
-0.41328892 -4.5891385 -2.451787
0.47945312 -4.4957156 -2.5976686
1.5486264 -4.5370884 -2.709095
2.5188479 -4.4681659 -2.7017829
3.5123425 -4.4865961 -2.5034194
4.3758326 -4.4377527 -2.3614402
5.4983339 -4.2386494 -2.2704682
6.4783225 -4.3195767 -2.6924837
7.3050251 -4.2341728 -2.8369763
8.5701895 -4.4274364 -2.8490374
9.4940128 -4.6718082 -2.8978376
10.546103 -4.7059002 -2.9294753
11.330924 -4.7579708 -2.942924
12.032244 -4.9921885 -2.9394546
-15.133898 -3.9282689 -2.2095513
-14.74767 -3.8500602 -2.6562636
-4.2960753 -3.7967193 -2.4085355
-3.6865997 -3.5159106 -2.4007783
-2.5473847 -3.8346505 -2.1260009
-1.3451447 -3.8261886 -2.2343664
-0.45522025 -3.6223683 -2.2813053
0.55111581 -3.4416597 -2.3902154
1.4885653 -3.3814027 -2.4982901
2.5478768 -3.4913661 -2.5420516
3.474463 -3.4727883 -2.4873216
4.422863 -3.3961418 -2.4637313
5.5025082 -3.5476069 -2.4659555
6.5130544 -3.401839 -2.7407181
7.4571147 -3.3575459 -2.8074191
8.394557 -3.3017335 -2.7508554
9.414917 -3.3179207 -2.7380919
10.202638 -3.2324324 -2.9032683
-2.0210626 -2.1368711 -2.1168365
-1.1845636 -2.8347569 -2.3178864
-0.52348012 -2.6808479 -2.3199763
0.49786493 -2.7346025 -2.1920993
1.6477736 -2.8275697 -2.2811732
2.5148299 -2.7059312 -2.3278859
3.5256948 -2.5342553 -2.3850615
4.4871755 -2.4709554 -2.4850137
5.4681749 -2.5160213 -2.6102889
6.5146284 -2.5081751 -2.7071772
7.5061026 -2.5255275 -2.6631711
8.4029312 -2.4963374 -2.6412284
9.5513163 -2.4199793 -2.7331545
10.444106 -2.2992079 -2.7123098
11.351952 -2.2626822 -2.7182498
12.573009 -2.2835047 -2.71579
13.440525 -2.2174306 -2.8185251
2.8704767 -1.9559896 -2.0153708
3.6404488 -1.7589846 -2.1399012
4.5136414 -1.7320889 -2.2124262
5.5245128 -1.7160009 -2.3115551
6.503727 -1.6426079 -2.3720117
7.5004816 -1.4829823 -2.4186215
8.4533653 -1.4675207 -2.4454498
9.4815836 -1.4716901 -2.4942453
10.486564 -1.5140289 -2.5569038
11.437598 -1.5192388 -2.6322474
12.40937 -1.424004 -2.6478217
13.56716 -1.4514989 -2.6608622
14.40239 -1.3952059 -2.7017143
15.511802 -1.4807179 -2.7031684
16.351957 -1.4092183 -2.775254
17.060484 -1.3801607 -2.9324512
2.9318695 -0.50543189 -2.0420198
3.4463329 -0.37328899 -2.0183849
5.7347031 -0.69661736 -2.0281315
6.4701676 -0.45107412 -2.1059892
7.5275621 -0.69087231 -2.1944139
8.5825539 -0.77270919 -2.2407262
9.5098944 -0.62773263 -2.2913909
10.494716 -0.45722157 -2.3105402
11.516838 -0.44580817 -2.4129868
12.473047 -0.49570435 -2.4228513
13.501169 -0.54612494 -2.4946942
14.411189 -0.52096969 -2.473623
15.367756 -0.47242269 -2.5520802
16.527905 -0.25023782 -2.6119647
17.427313 -0.26532087 -2.6713386
18.438026 -0.3403388 -2.8216324
19.509188 -0.039508164 -2.8602567
20.048037 -0.0147264 -2.8507624
5.9804645 0.37445235 -2.0731106
6.6371641 0.16553116 -2.0235205
9.5884695 0.1648656 -2.1861732
10.360832 0.12123695 -2.233747
11.571787 0.20927325 -2.2347701
12.476912 0.36386999 -2.2596269
13.420075 0.49274856 -2.271785
14.457272 0.52788329 -2.341464
15.488694 0.59587413 -2.4079854
16.477684 0.44515988 -2.4844449
17.483353 0.53544968 -2.5151227
18.50662 0.48926848 -2.5759609
19.555906 0.50156033 -2.5784581
20.330105 0.61594695 -2.4893239
21.402143 0.48042896 -2.5739012
22.097431 0.94226766 -2.5938067
7.5689192 1.4706208 -2.6534805
8.2094278 1.6077796 -2.609606
11.955128 1.0265031 -2.1774297
12.634982 1.1638173 -2.1513994
13.840075 1.1327761 -2.2358265
14.549994 1.2327046 -2.1952252
15.556945 1.416129 -2.2889352
16.503538 1.4103634 -2.3003411
17.476749 1.4398494 -2.3170302
18.465412 1.4009233 -2.344826
19.581245 1.5053455 -2.334183
20.393074 1.4302605 -2.3670566
21.450121 1.5305444 -2.4181809
22.307673 1.5943525 -2.4129729
16.612232 2.2125163 -2.0195127
17.55653 2.1324921 -2.1513531
18.538176 2.3353105 -2.1851897
19.522783 2.4107103 -2.2015631
20.367481 2.5031972 -2.1986876
21.48889 2.4892967 -2.2758768
22.430222 2.4777691 -2.2870793
23.47057 2.6701381 -2.4694839
24.323494 2.8733027 -2.4250052
25.324663 2.7703457 -2.4166436
19.443188 3.6436336 -2.3577969
20.518799 3.4427388 -2.3266304
21.533024 3.4391754 -2.3295352
22.597466 3.4932549 -2.3457472
23.449221 3.5321655 -2.3927169
24.517393 3.6161616 -2.5702813
25.433575 3.6999266 -2.5264351
26.546278 3.8024821 -2.5049026
27.584803 3.907156 -2.8599937
-2.5418389 4.6300688 -2.4886906
-1.5373887 4.8124208 -2.4415472
-0.97323036 4.936851 -2.4150639
1.638236 4.2729177 -2.4322262
2.3882854 4.2662268 -2.3873229
11.360731 4.6506596 -2.8871882
22.841595 4.0977597 -2.7115459
23.541618 4.1568594 -2.3838944
24.67433 4.3384938 -2.2932324
25.478178 4.449357 -2.2568276
26.494417 4.5443997 -2.2670248
27.539713 4.5366273 -2.4145899
28.512091 4.6962781 -2.4324255
29.340511 4.7321916 -2.374768
30.162903 4.6963921 -2.4530797
32.326019 4.8176017 -2.346102
11.684323 5.1343927 -2.8783035
25.572996 5.0003943 -2.254272
26.639423 5.1803427 -2.2534153
27.595654 5.2834802 -2.3702009
28.517944 5.4199195 -2.3106711
29.456329 5.5095954 -2.3698096
30.516012 5.4876857 -2.3455684
31.429506 5.4979548 -2.4113882
32.370312 5.5119128 -2.4198093
33.417736 5.6539912 -2.323365
29.73097 6.2234688 -2.2115934
30.5623 6.2210016 -2.2007787
31.562033 6.4900117 -2.3225479
32.584461 6.5254712 -2.0843205
33.36993 6.4233475 -2.1017644
34.632217 6.8283157 -2.3551731
35.719894 6.9746466 -2.0521965
36.593746 6.5773783 -2.7219963
37.494434 6.7080216 -2.7624698
38.199684 6.9041429 -2.7174098
8.8905859 7.3599672 -2.1414032
9.3325119 7.4712653 -2.1364734
31.585972 7.2270422 -2.264538
32.339684 7.5034866 -2.1826687
33.512955 7.1748652 -2.3226748
34.564144 7.4229612 -2.1763301
35.496346 7.3194914 -2.0305483
36.342701 7.3484931 -2.030365
37.538872 7.5133071 -2.0552816
38.513283 7.1407118 -2.6955271
40.978043 7.8765507 -2.5062966
41.199173 7.9394455 -2.5139472
38.777004 8.9462051 -2.7239075
41.753536 8.1715984 -2.527194
42.502686 8.4127674 -2.5459766
43.53075 8.7791777 -2.4742599
44.163799 8.9384947 -2.4507294
36.858555 9.122818 -2.0060849
37.650219 9.4269333 -2.2227049
38.546734 9.7019367 -2.2582941
39.400433 9.6152067 -2.5402236
40.134712 9.7098465 -2.592607
43.850029 9.0717688 -2.5489125
44.617611 9.3333292 -2.3159058
45.49189 9.4249411 -2.3503866
46.396984 9.7932882 -2.3666768
39.586319 10.091463 -2.3173044
40.361099 10.041023 -2.585968
42.529167 10.613419 -2.3206625
43.342979 10.873397 -2.2231963
44.871532 10.078234 -2.1024165
45.500549 10.270217 -2.0764563
46.3433 10.435957 -2.0301661
48.918804 10.528318 -2.1686537
49.13826 10.885716 -2.1597147
42.745308 11.125971 -2.3286934
43.607819 11.388144 -2.2240195
44.55307 11.776701 -2.1155074
49.466354 11.074135 -2.1361694
51.676769 11.76602 -2.816879
52.07962 11.7182 -2.8067546
44.82782 12.036104 -2.0951562
52.721588 12.11337 -2.7717395
53.629005 12.278012 -2.8877385
54.509754 12.507536 -2.9634907
55.384151 12.876056 -2.9305532
26.443119 -99.01738 -1.2578934
27.035862 -99.163292 -1.4682132
18.544712 -98.574165 -1.1389323
26.569729 -98.802422 -1.4765605
10.480552 -97.529785 -1.0632848
18.772781 -97.06823 -1.2768539
2.8009081 -96.040718 -1.1945747
5.6877284 -96.358032 -1.085646
16.697798 -96.482918 -1.2242538
17.355686 -96.271599 -1.0947196
18.885696 -96.651459 -1.3048514
19.675241 -96.367302 -1.1403627
25.760754 -96.222343 -1.5925328
26.277649 -96.809204 -1.1877288
6.5033927 -95.225281 -1.1887544
7.1345453 -95.265297 -1.589239
9.87778 -95.330864 -1.1561476
14.421668 -95.243767 -1.1416487
15.90314 -95.511169 -1.1295599
16.554359 -95.583305 -1.1819124
17.085438 -95.399643 -1.1877081
19.538982 -95.597984 -1.1958153
25.362484 -95.335403 -1.4867181
35.512371 -95.174774 -1.4873662
36.650211 -95.53743 -1.4428929
37.54866 -95.711273 -1.4551227
5.7860866 -94.396301 -1.2824583
6.3667603 -94.407936 -1.2982359
8.0266438 -94.083153 -1.1733527
9.4290361 -94.471321 -1.2858559
10.531796 -94.39682 -1.2362614
11.633417 -94.230385 -1.5399311
12.350696 -94.080048 -1.0568336
13.68703 -94.228073 -1.1305552
14.554543 -94.512177 -1.3387177
15.630988 -94.660118 -1.1863216
16.494658 -94.308136 -1.1713624
17.436623 -94.31517 -1.45533
18.187035 -94.123215 -1.7707416
19.570969 -94.597687 -1.4977925
20.158613 -94.260124 -1.4543283
21.406641 -94.358009 -1.2951847
22.752237 -94.408157 -1.5164725
24.709789 -94.54039 -1.4743165
25.334805 -94.783035 -1.3237102
26.236485 -94.147148 -1.0506251
27.545925 -94.511002 -1.2712812
29.389072 -94.166542 -1.1255364
31.186995 -94.163254 -1.2165474
32.574677 -94.542435 -1.2992476
33.746498 -94.565033 -1.5000854
34.722698 -94.630814 -1.4717374
35.15052 -94.785545 -1.4909649
36.764446 -94.679283 -1.3301017
-1.5807564 -93.647141 -1.2924708
-0.38139868 -93.119881 -1.0473884
4.5351543 -93.399353 -1.3657621
5.703743 -93.542664 -1.3944952
6.6277976 -93.610619 -1.4275138
7.4879851 -93.236694 -1.3897431
8.0162563 -93.039581 -1.6432447
9.4757614 -93.522102 -1.1919973
10.53976 -93.318398 -1.3365563
11.436359 -93.603081 -1.2038239
12.440707 -93.59993 -1.200933
13.502181 -93.644478 -1.2196651
14.562 -93.416489 -1.4039614
15.644568 -93.393929 -1.2892247
16.621616 -93.428902 -1.3198372
17.371315 -93.399811 -1.598292
18.571478 -93.92173 -1.2175039
19.608803 -93.667747 -1.2820184
20.257721 -93.613899 -1.4327948
21.527441 -93.507622 -1.3476925
22.346943 -93.409088 -1.400807
24.374693 -93.477402 -1.2473561
25.50808 -93.265724 -1.2185183
26.676729 -93.656563 -1.0787346
27.217562 -93.579262 -1.1281651
28.625586 -93.531372 -1.1787353
30.941298 -93.703964 -1.2734967
31.180405 -93.698471 -1.1944755
-15.143138 -81.186279 -2.8285575
2.9128733 -92.160637 -1.3443726
4.8153982 -92.58297 -1.4276431
5.7472839 -92.461067 -1.2965801
6.6006131 -92.333336 -1.3526
7.5192533 -92.405647 -1.4375825
8.3387289 -92.635101 -1.3861432
9.3680439 -92.625755 -1.4316523
10.637304 -92.596275 -1.5223763
11.470022 -92.45446 -1.3851066
12.470163 -92.623672 -1.5048425
13.618637 -92.451057 -1.4951892
14.401648 -92.401459 -1.5507954
15.582093 -92.562874 -1.5724272
16.5191 -92.388847 -1.4623967
17.545021 -92.448425 -1.5633137
18.181574 -92.477158 -1.512549
19.451836 -92.279526 -1.6223197
20.18615 -92.228844 -1.6020901
21.706623 -92.408867 -1.5127492
22.196573 -92.606628 -1.5281901
23.654739 -92.59304 -1.2739233
24.611036 -92.440117 -1.3388444
25.55134 -92.404167 -1.3199759
26.3675 -92.37767 -1.4062059
27.160517 -92.31662 -1.5084064
28.84815 -92.058212 -1.2001102
29.343069 -92.405418 -1.3191192
30.559059 -92.391914 -1.4348351
31.42535 -92.593369 -1.324046
32.991619 -92.027214 -1.6557435
33.951416 -92.138443 -1.3678541
34.639946 -92.616318 -1.5273193
38.976337 -92.116798 -1.7466644
39.024017 -92.067917 -1.6204959
44.618073 -92.290726 -1.5502094
45.313766 -92.452545 -1.5433325
17.390488 -1.6290277 -2.3503981
-3.1064734 -91.910622 -1.0245479
-1.8932388 -91.990601 -1.1337003
0.40467024 -91.017044 -1.1173228
2.4649301 -91.18689 -1.1948193
3.3174458 -91.194916 -1.2427995
4.4653487 -91.400452 -1.3735851
5.6279407 -91.734184 -1.2647665
6.5132046 -91.628853 -1.4594687
7.5857983 -91.520699 -1.5497806
8.6710129 -91.473061 -1.3533795
9.5610819 -91.277618 -1.4803678
10.469831 -91.326225 -1.5426931
11.512663 -91.397018 -1.5501423
12.546423 -91.301247 -1.5903147
13.530569 -91.372177 -1.5870889
14.547744 -91.485054 -1.5477829
15.674046 -91.454941 -1.5115902
16.511101 -91.559219 -1.5701963
17.563324 -91.458984 -1.6087106
18.441164 -91.429192 -1.5161966
19.57214 -91.421959 -1.4809309
20.316641 -91.467033 -1.4927863
21.584551 -91.471169 -1.5515761
22.492783 -91.48922 -1.506114
23.524734 -91.458946 -1.3953286
24.49696 -91.386368 -1.3863673
25.557978 -91.475853 -1.4639493
26.354904 -91.721992 -1.457739
27.233473 -91.759438 -1.400666
28.564667 -91.548157 -1.4350213
29.416935 -91.709122 -1.5282514
30.72434 -91.583168 -1.4987029
31.221472 -91.346703 -1.242581
32.597549 -91.582069 -1.5142609
33.468948 -91.644089 -1.4684342
34.269997 -91.632286 -1.5642089
35.145016 -91.450241 -1.6094222
36.102173 -91.903557 -1.5800918
44.639503 -91.901672 -1.582451
47.464382 -91.28067 -1.21292
48.691643 -91.299706 -1.5191859
49.307068 -91.56649 -1.5484045
-3.8862898 -90.112656 -1.4112834
-1.2144332 -90.344337 -1.0437808
-0.045168042 -90.318359 -1.8270485
0.21228218 -90.149841 -1.8187852
2.618269 -90.315491 -1.3436329
3.6029465 -90.560966 -1.3439028
4.5308137 -90.404541 -1.5374241
5.4240837 -90.414787 -1.4376382
6.6660571 -90.459351 -1.4642844
7.5471787 -90.477356 -1.6062515
8.4923697 -90.301743 -1.472187
9.5470037 -90.607414 -1.6123922
10.423761 -90.601089 -1.5899017
11.537087 -90.647499 -1.5302516
12.570407 -90.65065 -1.4996283
13.481568 -90.620407 -1.6115165
14.371248 -90.63427 -1.5167278
15.459702 -90.453316 -1.3367902
16.456846 -90.289513 -1.3980898
17.431717 -90.532623 -1.4233203
18.438747 -90.499069 -1.4466647
19.551428 -90.307709 -1.3587037
20.377617 -90.273232 -1.2950728
21.429213 -90.139664 -1.6329683
22.605949 -90.359886 -1.5074214
23.476299 -90.360123 -1.4895694
24.559303 -90.424576 -1.5458791
25.657534 -90.546471 -1.5512178
26.330982 -90.486732 -1.4758779
27.711042 -90.607841 -1.8046492
28.375473 -90.410576 -1.5877417
29.474804 -90.234528 -1.6356091
30.360352 -90.546066 -1.5583308
31.801054 -90.210495 -1.5709219
32.536476 -90.153625 -1.5205822
33.528149 -90.365883 -1.469866
34.512444 -90.353401 -1.4886947
35.482243 -90.229057 -1.4486028
36.551163 -90.356255 -1.5078412
37.446476 -90.332474 -1.4403386
38.418709 -90.5261 -1.4523864
39.250961 -90.453293 -1.5419661
40.850311 -90.257568 -1.4405437
41.834343 -90.205093 -1.4743991
42.368774 -90.300034 -1.391827
43.612213 -90.184044 -1.3845859
44.415443 -90.375549 -1.4060568
45.412148 -90.348953 -1.4021286
46.446068 -90.339478 -1.1405582
47.500946 -90.360367 -1.4990462
48.535583 -90.443939 -1.8687657
49.505287 -90.458893 -1.6714735
50.473553 -90.812073 -1.0631971
51.025768 -90.578323 -1.0299313
-2.0161092 -89.750778 -1.8980855
-1.355997 -89.891525 -1.3500412
0.4393388 -89.774956 -1.43716
1.5457293 -89.451469 -1.5190337
2.5354714 -89.398865 -1.5263019
3.4268761 -89.439499 -1.5030382
4.472415 -89.627121 -1.5214409
5.413322 -89.528313 -1.6591409
6.6141453 -89.533485 -1.5307971
7.566319 -89.480873 -1.3424399
8.3119497 -89.665474 -1.4295765
9.6337976 -89.704948 -1.883316
10.50214 -89.642654 -1.7402916
11.436027 -89.589615 -1.7264093
12.655215 -89.721138 -1.6530617
13.381828 -89.687302 -1.79462
14.508236 -89.677536 -1.6292681
15.515085 -89.708443 -1.6428074
16.549559 -89.746239 -1.7055479
17.305113 -89.662224 -1.6129192
18.578054 -89.643158 -1.537426
19.590614 -89.665619 -1.555021
20.489182 -89.717468 -1.4947884
21.458658 -89.618706 -1.4967394
22.527258 -89.679909 -1.572811
23.431829 -89.651176 -1.5314945
24.498823 -89.719986 -1.4312332
25.610136 -89.581528 -1.5251367
26.460524 -89.581184 -1.5015147
27.487793 -89.512993 -1.4769837
28.637531 -89.523224 -1.4708419
29.512127 -89.523521 -1.314811
30.646805 -89.37368 -1.5006721
31.459225 -89.541061 -1.401127
32.573971 -89.38414 -1.4393351
33.532265 -89.479057 -1.4571847
34.484169 -89.393127 -1.4563327
35.448147 -89.389336 -1.4186456
36.495647 -89.457733 -1.4145494
37.407909 -89.488976 -1.5614948
38.337921 -89.517197 -1.6026123
39.516148 -89.688889 -1.4332969
40.412632 -89.722214 -1.347463
41.633698 -89.816795 -1.3977126
42.423367 -89.889694 -1.2834878
43.191078 -89.978455 -1.3873031
44.420528 -89.954018 -1.6778479
45.902191 -89.010353 -1.9108343
46.744102 -89.035309 -1.7676147
47.557167 -89.152641 -1.6381216
48.553661 -89.381126 -1.6021588
49.586426 -89.302025 -1.5785803
50.228924 -89.37056 -1.4601486
-6.0132742 -88.535408 -1.0268693
-5.7489443 -88.517647 -1.0009727
-3.5328832 -88.126823 -1.7813462
-2.7139354 -88.39093 -1.5836
-1.2024726 -88.093079 -1.2936348
0.55922437 -88.358543 -1.5679737
1.5459186 -88.582344 -1.6410078
2.467654 -88.745087 -1.553288
3.4302564 -88.670631 -1.5827742
4.4062958 -88.633041 -1.6237701
5.595511 -88.644341 -1.3826151
6.5060925 -88.55204 -1.519017
7.2073164 -88.582245 -1.3047771
8.768939 -88.829361 -1.8029459
9.0821056 -88.762642 -1.9314951
11.787065 -88.997131 -1.5218819
13.453876 -88.851669 -1.3961338
17.65416 -88.841133 -1.9255024
18.122192 -88.895767 -1.9110621
19.621735 -88.541275 -1.4229752
20.559793 -88.592667 -1.5456506
21.304785 -88.816917 -1.760438
22.601385 -88.716873 -1.6702412
23.515366 -88.799599 -1.4755446
24.625217 -88.685127 -1.4357697
25.491444 -88.726364 -1.4355553
26.510256 -88.829239 -1.5555899
27.278126 -88.890488 -1.554333
28.656799 -88.745995 -1.4565562
29.535711 -88.646049 -1.5297214
30.402491 -88.523369 -1.5260688
31.619402 -88.68232 -1.7862539
32.378708 -88.762589 -1.5619816
33.528511 -88.78933 -1.8191866
36.385193 -88.993095 -1.5121654
45.676125 -88.975296 -1.9476762
46.236076 -88.989868 -1.8508339
48.549858 -88.985573 -1.7524586
-4.2953377 -87.15789 -1.2747742
-3.3888576 -87.69268 -1.6542894
-2.4850695 -87.319237 -1.5080464
-1.479489 -87.394173 -1.5554874
-0.72266281 -87.403061 -1.3894523
0.72678471 -87.845619 -1.5566062
1.5499313 -87.731041 -1.5365156
2.383173 -87.384636 -1.2352014
3.2300715 -87.384705 -1.112627
27.707375 -87.839203 -1.6988859
28.409626 -87.85231 -1.6012896
29.456394 -87.868927 -1.7362199
30.291332 -87.825912 -1.9013128
-10.274711 -86.371445 -1.716126
-9.8102531 -86.629509 -1.6718868
-3.8965001 -86.582733 -1.3384336
-4.5328088 -86.504936 -1.3249269
1.3436846 -87.386131 -1.1751266
-2.256465 -86.474442 -1.8262634
-1.4654825 -86.633881 -1.5319945
-0.51618457 -86.52533 -1.5651869
0.23770876 -86.266075 -1.3083733
1.054038 -86.031746 -1.1703843
2.3676553 -86.318092 -1.1692424
-12.466413 -85.377335 -1.4977136
-10.774075 -85.931259 -1.7833059
17.483353 0.53544968 -2.5151227
-7.6130266 -85.116913 -1.3433604
-1.10226 -85.87072 -1.4724926
0.90553528 -86.161751 -1.5357076
-3.4604347 -85.489159 -1.5848936
-2.3824642 -85.533829 -1.5094024
-1.2863725 -85.621933 -1.3447996
-0.51301587 -85.573784 -1.5819546
0.63241494 -85.503632 -1.2962301
1.1937902 -85.829849 -1.12688
-21.060654 -13.439161 -3.3856068
-18.315304 -28.077042 -3.4139726
-11.152629 -85.143936 -1.461043
-7.827064 -85.644859 -1.7268052
-5.4356308 -84.622597 -1.397275
-4.4886398 -84.603508 -1.4268081
-3.6775813 -84.816635 -1.4822695
-2.2288866 -84.713631 -1.1419128
-1.2824199 -84.936295 -1.4681331
-0.17062199 -84.40593 -1.1773421
0.32874125 -84.803978 -1.3561776
-32.678192 -21.629976 -3.245446
7.9620252 -0.33219957 -3.4189453
-12.450267 -83.417908 -1.8104582
-11.632982 -83.833656 -1.7012419
-4.7370653 -83.978081 -1.0871691
-13.077821 -82.802917 -1.3868306
18.560455 -82.360802 -1.9229584
-16.165325 -80.242859 -1.6336161
-15.805518 -80.627266 -1.6278999
-16.719469 -79.652206 -1.6425364
1.4657402 -87.603821 -4.5465579
3.3868923 -87.654991 -4.4425764
13.627341 -0.5329715 -3.3580589
15.077627 -0.52146244 -3.2621322
1.6707293 -87.177368 -4.2825656
-7.4379072 -80.009705 -4.440021
-20.471354 -12.54979 -3.3285835
-21.481955 -69.244629 -4.7743902
-32.830166 -31.81078 -3.6455622
-17.727858 -12.825933 -3.6938767
21.392008 -0.40543294 -3.557539
-20.880131 -36.877174 -3.0181646
-40.419777 -28.805231 -3.4920583
-25.904085 -24.830761 -3.678123
-25.894533 -72.277832 -1.2178805
-1.7087756 -85.665825 -2.4378834
-28.514771 -30.669067 -2.4910879
-26.270247 -71.439789 -1.3349913
-25.964794 -71.971779 -1.2551889
-27.214947 -70.235161 -1.610021
-26.77284 -70.802223 -1.4417655
-33.805309 -30.070528 -3.3435485
-40.483681 -29.472141 -2.4715767
-27.139174 -68.091949 -1.5907304
-26.714952 -68.63459 -1.5715182
-12.635039 -81.289398 -2.7688353
-30.246212 -34.171337 -3.8940592
19.484871 -85.594528 -2.6134393
19.443188 3.6436336 -2.3577969
-24.316765 -40.554424 -3.9166977
45.420479 -61.31477 -1.2894449
44.952385 -60.203613 -1.4513896
45.599068 -60.608513 -1.3176444
46.360069 -60.455601 -1.2958286
44.797665 -59.284599 -1.5000803
45.574703 -59.530487 -1.3690153
46.338203 -59.561634 -1.3546273
47.099266 -59.742073 -1.2053475
44.694942 -58.486416 -1.498319
45.618393 -58.484688 -1.4610258
46.324825 -58.628418 -1.3991119
43.991875 -57.313507 -1.5096431
44.586338 -57.462524 -1.5913432
45.459225 -57.51239 -1.5464454
46.352978 -57.594482 -1.4716229
47.529114 -57.661255 -1.3629354
43.8965 -56.105827 -1.5819314
44.52005 -56.390755 -1.6369009
45.453316 -56.545494 -1.5820259
46.210796 -56.623466 -1.4947727
44.403938 -55.462002 -1.5807644
45.535717 -55.375832 -1.631483
46.693863 -55.82534 -1.4645824
-36.192936 -44.173538 -1.0645897
-35.585434 -44.36237 -1.0445403
-36.231415 -43.753349 -1.0810981
-30.874218 -40.131813 -1.9596113
-36.007774 -39.824837 -1.2490535
-35.841118 -39.663788 -1.1154253
-32.487087 -39.007088 -1.3593447
-22.377014 -39.787746 -1.9876485
-42.403202 -38.130695 -1.1049976
-32.549377 -38.568317 -1.3509097
-43.398514 -37.080185 -1.2879131
-42.664749 -37.468449 -1.6140283
-34.806637 -37.414619 -1.3812819
-32.342606 -37.597523 -1.4015847
-31.967878 -37.257599 -1.3189073
-43.145367 -36.502525 -1.40678
-42.785625 -36.49221 -1.5536441
-35.508255 -36.014969 -1.9765185
-32.491066 -36.613991 -1.8723599
-31.766027 -36.477394 -1.5717571
-43.116547 -35.950413 -1.4902878
-42.47636 -35.61636 -1.2369543
-41.685642 -35.189579 -1.375252
-38.13792 -35.259003 -1.8915766
-37.369053 -35.232021 -1.8923784
-36.30164 -35.417198 -1.9362624
-35.855957 -35.622654 -1.9823388
-34.571156 -35.482723 -1.954206
32.752468 -35.49461 -1.1004527
33.203465 -35.552624 -1.0413427
-42.205799 -34.454582 -1.1930666
-41.752541 -34.616356 -1.3771316
-40.232426 -34.350063 -1.5993097
-39.572788 -34.012032 -1.7988079
-37.486576 -34.86853 -1.9385437
-36.17775 -34.74868 -1.9911883
-35.752808 -34.746838 -1.9603918
30.806377 -34.111698 -1.5605755
31.479883 -34.413406 -1.442475
32.513836 -34.376198 -1.1496512
33.31889 -34.469799 -1.0905596
34.224293 -34.538349 -1.0514464
-43.019897 -33.045078 -1.2931237
-42.29163 -33.434566 -1.4339447
-41.625099 -33.616222 -1.5691047
-40.158905 -33.376823 -1.6748656
-39.959148 -33.593025 -1.7238913
-30.885841 -33.158863 -1.8567066
29.711142 -33.164188 -1.8318251
30.482918 -33.632786 -1.6347439
31.56579 -33.321396 -1.3822906
32.422714 -33.578445 -1.2523899
33.512161 -33.503807 -1.2147304
34.055569 -33.494228 -1.1577446
-43.083523 -32.575531 -1.244274
-42.495892 -32.429527 -1.2749239
-41.697922 -32.660923 -1.2959527
-40.334255 -32.667503 -1.7142311
-30.497044 -32.55278 -1.6460592
28.724068 -32.387032 -1.923846
29.496216 -32.635468 -1.7906435
30.525227 -32.421932 -1.6075383
31.47818 -32.517139 -1.3612276
32.323036 -32.617626 -1.393531
33.368992 -32.982971 -1.3728466
-43.236721 -31.409361 -1.1371826
-42.589989 -31.567307 -1.4641225
-41.893967 -31.42767 -1.9880326
-40.373077 -31.576651 -1.5713862
-39.77713 -31.538263 -1.6341187
-37.091995 -31.410252 -1.2788767
-36.548798 -31.323666 -1.477572
-35.513176 -31.383703 -1.5575407
-31.121937 -31.757811 -1.3389113
-30.425198 -31.579758 -1.5234293
-21.378437 -31.284487 -1.8710361
28.710911 -31.170208 -1.6339427
29.608057 -31.431841 -1.6814719
30.439379 -31.512981 -1.5580258
31.344765 -31.704475 -1.4300101
32.234112 -31.315258 -1.4295888
-43.377239 -30.380281 -1.3444586
-42.779442 -30.686056 -1.3176212
-40.670177 -30.478436 -1.230352
-39.883896 -30.584902 -1.5549674
-37.069241 -30.750385 -1.5511312
-36.582851 -30.627861 -1.4494668
-35.695698 -30.801439 -1.462348
-30.209156 -30.018236 -1.3961843
-29.951172 -30.056444 -1.387944
28.674713 -30.415276 -1.6605759
29.447174 -30.585724 -1.6325777
30.39053 -30.535927 -1.3035375
31.372223 -30.588598 -1.4934605
-44.101116 -29.311268 -1.2157383
-43.457047 -29.481359 -1.4869477
-42.808109 -29.711653 -1.1599653
-40.312729 -29.449905 -1.388275
-39.629993 -29.193964 -1.0990142
-38.777412 -29.404587 -1.4419646
-34.280006 -29.230484 -1.7575169
-33.257729 -29.160856 -1.9397333
-31.399099 -29.494328 -1.4492897
-30.658953 -29.562435 -1.7354867
27.862875 -29.367126 -1.6741608
28.356619 -29.474268 -1.6539277
29.423203 -29.501986 -1.5012763
30.208832 -29.76049 -1.2910589
-44.197186 -28.50672 -1.3368671
-43.635567 -28.537428 -1.4639691
-42.949341 -28.955273 -1.0268444
-41.01408 -28.000607 -1.554755
-40.526951 -28.581484 -1.3912773
-39.769699 -28.371048 -1.3836743
-34.270691 -28.72366 -1.9298549
-32.309185 -28.759127 -1.482923
27.436241 -28.538975 -1.7277025
28.54458 -28.506201 -1.5659026
29.339294 -28.743351 -1.4657347
-44.241009 -27.429621 -1.4155849
-43.832954 -27.783079 -1.41363
-41.389854 -27.873541 -1.6285108
-39.839851 -27.6413 -1.2953105
-32.026741 -27.539934 -1.9733367
27.371557 -27.559263 -1.7398944
28.381525 -27.619547 -1.5791485
29.295277 -27.963749 -1.5178928
-44.407852 -26.686666 -1.4590515
-32.066212 -26.835581 -1.8922849
-31.842697 -26.768824 -1.8858181
-30.785633 -26.464836 -1.9804487
-45.005917 -25.325575 -1.375464
-33.90921 -24.314545 -1.8114727
-30.490997 -24.546175 -1.6133709
-44.150318 -23.154942 -1.1702423
-43.772026 -23.246826 -1.6947764
-34.205486 -23.515553 -1.6597599
-33.368977 -23.455254 -1.349077
-32.954994 -23.533094 -1.5660529
-28.530111 -23.264795 -1.6911553
-47.649639 -22.352097 -1.19533
-44.469967 -22.393995 -1.3328041
-34.098995 -22.650238 -1.4203215
-33.526691 -22.627808 -1.3712715
-32.588768 -22.828079 -1.5847938
-31.509033 -22.324209 -1.9816701
-28.308575 -22.54121 -1.7057314
-48.071754 -21.492977 -1.1670614
-47.912621 -21.774788 -1.1768082
-45.224319 -21.288881 -1.1817679
-44.696541 -21.376308 -1.2685034
-43.263737 -21.176765 -1.6637192
-42.813095 -21.233074 -1.7524464
-33.352989 -21.824799 -1.3521444
-32.826153 -21.965836 -1.3406985
-29.344879 -21.292049 -1.3989416
-27.809347 -21.023695 -1.9728544
-45.341499 -20.534498 -1.2931616
-44.512466 -20.601816 -1.7417189
-43.286083 -20.601997 -1.6904716
-42.522366 -20.41543 -1.9315404
-41.520756 -20.512501 -1.5296549
-40.80883 -20.398863 -1.2397146
-39.961494 -20.414238 -1.7514665
-38.612019 -20.130768 -1.889222
-29.45433 -20.431692 -1.5771708
-28.604208 -20.387037 -1.5971076
-27.558542 -20.229618 -1.3089689
-26.803467 -20.216137 -1.3732256
