# .PCD v0.7 - Point Cloud Data file format
VERSION 0.7
FIELDS x y z
SIZE 4 4 4
TYPE F F F
COUNT 1 1 1
WIDTH 1496
HEIGHT 1
VIEWPOINT 0 0 0 1 0 0 0
POINTS 1496
DATA ascii
64.904419 -113.8091 -0.4797377
57.352043 -109.70692 -0.54508847
48.195534 -106.60988 -0.39155114
14.827948 -104.71378 -0.21844065
31.695238 -104.4987 -0.4556548
32.181763 -104.92519 -0.59472889
34.538906 -104.30847 -0.39884624
41.181908 -104.87878 -0.1824221
49.687027 -105.9044 -0.0054882765
2.6785903 -102.78822 -0.006090045
15.443165 -103.11942 -0.033260226
18.684217 -102.31605 -0.17403905
25.351696 -103.22731 -0.18562979
29.70204 -102.61322 -0.5167169
30.955275 -102.63409 -0.57682985
34.488663 -103.92059 -0.4036178
41.492229 -102.35181 -0.19241351
42.97142 -102.62074 -0.59594268
44.123348 -102.31109 -0.60953468
46.968102 -103.06483 -0.33336282
48.164207 -103.48283 -0.15305883
-0.55484366 -101.23275 -0.1338228
3.8438797 -101.01515 -0.098792911
4.6542277 -100.6524 -0.26851338
11.372895 -101.53064 -0.161116
12.718806 -100.37888 -0.38059664
15.514659 -100.39503 -0.23728681
17.928488 -101.898 -0.61604226
18.906275 -101.10907 -0.30719176
24.144642 -100.26587 -0.034084499
27.335693 -100.82652 -0.42479846
28.131908 -101.41945 -0.37095296
30.778791 -100.65346 -0.58664542
41.559772 -101.4231 -0.54878521
42.205524 -101.45987 -0.30846471
44.415047 -101.84778 -0.65803975
-0.14412189 -99.120399 -0.29114324
0.97893226 -98.80127 -0.27762887
3.450911 -98.550156 -0.30595839
5.2489953 -98.59169 -0.23219833
12.985698 -99.700317 -0.048980277
15.82646 -98.630501 -0.31498343
16.53422 -99.107376 -0.20844863
18.749065 -99.077667 -0.55633891
27.121014 -99.004295 -0.54735804
29.446331 -98.520378 -0.25734764
30.441872 -98.745697 -0.34274408
33.849098 -98.268936 -0.46489948
34.40831 -98.860107 -0.38552746
39.339989 -99.146744 -0.66441286
41.151058 -98.872467 -0.67165756
43.506714 -98.476646 -0.58583051
-16.980799 -97.06073 -0.1587013
-14.956287 -96.314819 -0.5682286
-13.557454 -96.424484 -0.21417081
1.2355452 -97.842545 -0.30322683
3.2946668 -96.411156 -0.32877389
5.356091 -96.521095 -0.55764711
6.8867908 -97.118095 -0.38143563
8.9791698 -96.663986 -0.3484101
10.477982 -97.021202 -0.33234423
13.202426 -97.280663 -0.48149562
15.151134 -96.776138 -0.47388706
16.711693 -96.614136 -0.7525546
19.205671 -96.68399 -0.84819674
20.182552 -96.584312 -0.64581811
22.459568 -96.225807 -0.050186992
25.760754 -96.222343 -1.5925328
26.936535 -96.673004 -0.18489182
29.472036 -97.86969 -0.29276007
30.373581 -97.790771 -0.33566183
39.330097 -97.941284 -0.49528903
42.831627 -97.665649 -0.64509016
-16.21582 -94.114609 -0.61859071
-14.870445 -95.413376 -0.30010721
-13.560415 -95.244713 -0.22775781
0.96053028 -95.918175 -0.12460363
3.5003607 -95.433319 -0.3559632
5.1951184 -94.886475 -1.0117862
6.6317978 -94.903381 -1.1364082
9.4548836 -94.895828 -0.61985171
10.811973 -94.613533 -0.60216027
13.078846 -94.370552 -0.58372873
15.086066 -94.939438 -0.8534323
16.767883 -95.044006 -0.7973519
19.196693 -95.104836 -0.78402174
20.791929 -94.4729 -0.70654309
22.944967 -94.478622 -0.57971591
25.078083 -94.734764 -0.69283628
26.71373 -94.90242 -0.41893047
29.211145 -94.438744 -0.73215169
31.04093 -94.726181 -0.70187265
33.26902 -94.695969 -0.86379486
34.918373 -94.983765 -0.81306219
36.822956 -95.45047 -1.1146808
-15.416594 -93.635132 -0.29172742
-11.014749 -92.559608 -0.13046159
-6.435029 -92.107414 -1.94322
-4.9817367 -93.019348 -0.31550157
-2.6548963 -92.495857 -0.6038515
-1.3377842 -93.576477 -1.1482441
3.393903 -92.861923 -0.53103065
5.2356062 -92.723373 -0.69588524
6.9855232 -92.911682 -1.090202
8.8996496 -92.974091 -1.0657662
11.207372 -92.921547 -1.0354791
12.899415 -93.283989 -0.75508571
15.007687 -92.76606 -1.1719631
17.141054 -92.834541 -1.0075971
18.916405 -92.766777 -0.95524478
21.256632 -93.075104 -0.8607325
22.807425 -92.995247 -0.61771965
25.024822 -92.706039 -0.6084097
26.857796 -93.110878 -0.73204702
29.15921 -92.655632 -0.60937804
31.068676 -92.838264 -0.82519257
32.671577 -92.22464 -0.80523694
34.700768 -92.582062 -1.3147181
38.900738 -92.25985 -0.93821919
41.74884 -92.179062 -0.84390998
42.417793 -92.22998 -0.83401477
44.791996 -92.331177 -1.5484902
50.435711 -92.056335 -0.83522552
-11.565271 -91.758904 -0.22341526
-8.3523731 -91.126343 -0.86182094
-6.9572515 -90.80365 -1.0151883
-5.423665 -90.957466 -1.1778855
-2.5279901 -91.368301 -0.91535741
-1.1015646 -90.681122 -1.0102175
0.94928616 -90.297829 -0.71267968
3.3654821 -90.583809 -0.7904563
4.8644753 -90.810143 -1.0039214
7.0411391 -91.058388 -1.1453713
9.1204023 -90.944336 -1.4075749
11.110207 -91.054428 -1.3382056
13.014007 -91.000618 -1.3350034
14.936815 -90.899101 -1.0161816
17.130558 -91.11171 -1.1670661
18.980135 -91.002022 -1.0834091
20.905056 -90.975029 -1.0217823
23.123199 -90.984344 -1.0290102
24.790707 -91.001823 -1.0296057
26.869293 -91.138199 -0.93063408
29.05657 -91.004585 -1.2346368
31.217398 -91.072289 -1.0664276
33.148529 -90.726364 -1.1890681
35.060066 -90.592346 -0.97440714
36.798096 -90.533363 -0.93385041
38.720642 -90.9758 -0.8356685
41.203674 -90.464867 -0.86605859
42.911152 -90.480515 -0.95267105
44.697327 -90.525993 -1.1683983
47.113037 -90.662979 -1.0388595
49.083675 -91.167801 -0.99816281
50.662045 -91.341301 -0.67858171
-6.0629768 -89.352722 -0.72563374
-5.6718054 -89.456635 -1.3127389
-2.7155991 -88.892876 -0.89776963
-0.98334229 -88.741814 -0.52401757
1.2343808 -89.003098 -1.2992077
2.9745321 -89.080086 -1.1719686
4.8309469 -89.122665 -1.479956
7.0450826 -89.160606 -1.3347665
8.7462063 -89.440681 -1.3977801
11.119422 -89.609886 -1.6805997
13.154138 -89.670151 -1.7365103
15.028611 -89.694977 -1.629439
17.02808 -89.636284 -1.5776948
19.162121 -89.568581 -1.4725305
21.020767 -89.545876 -1.3169547
22.937065 -89.502426 -1.260462
25.21019 -89.413544 -1.2749871
26.859398 -89.306129 -1.2856721
29.131586 -89.211678 -1.0796077
31.078852 -89.356766 -1.1168871
33.017357 -89.294075 -1.1367366
34.947594 -89.448074 -1.0001917
36.931705 -89.542671 -1.029631
38.927006 -89.595238 -1.0931443
40.884239 -89.653358 -1.2170821
42.582207 -89.908058 -1.3049668
44.727673 -89.730865 -1.737282
47.049034 -89.084885 -1.719512
49.022751 -89.309212 -1.605105
50.228924 -89.37056 -1.4601486
-10.274711 -86.371445 -1.716126
-9.8102531 -86.629509 -1.6718868
-6.7644558 -86.140137 -1.2988888
-4.8614402 -86.522163 -1.284174
-2.9767442 -87.262444 -1.3056041
-0.94993383 -86.923271 -1.0216682
0.91268444 -87.167397 -1.0692726
2.6031008 -87.380783 -1.051442
7.16119 -87.52404 -0.74527323
25.331398 -87.761742 -0.087422371
27.707375 -87.839203 -1.6988859
28.874857 -87.859688 -1.6612586
30.581165 -87.80761 -1.5246261
-24.124115 -84.830849 -0.64239252
-23.707087 -84.747169 -0.83640969
-18.791155 -84.37188 -1.4449608
-12.808524 -84.888336 -1.4187169
-11.137435 -84.673553 -1.4075284
-8.7380028 -84.930595 -0.64964265
-6.9985447 -85.135429 -1.1590792
-4.9611583 -85.115204 -1.3267026
-2.8926752 -85.093567 -1.0979958
-0.85918397 -85.047981 -0.70499068
0.52035737 -85.189247 -0.75503403
-21.760887 -83.586823 -1.4278554
-18.539616 -83.521645 -1.3831059
-12.476414 -83.392273 -1.7928071
-11.632983 -83.833656 -1.7012416
-8.1456909 -83.737122 -0.58923358
-4.7370653 -83.978081 -1.0871691
-2.3523786 -83.855652 -0.36861026
-1.4013946 -83.966667 -0.44810665
17.533541 -82.4086 -1.8719562
18.560455 -82.360802 -1.9229584
-16.165325 -80.242859 -1.6336161
-15.805518 -80.627266 -1.6278999
-16.719469 -79.652206 -1.6425365
-40.165146 -77.367836 -0.23056924
18.547499 -14.949997 -2.0736318
23.212095 -54.025906 -1.4999074
-24.153976 -77.475243 -1.4407047
-23.921452 -77.147667 -1.5067545
-38.63588 -75.508507 -0.58910733
7.0939331 -94.895226 -0.92268199
-26.647898 -74.989326 -1.4198946
-25.42318 -74.620857 -1.6088771
-26.213379 -73.429062 -1.7867254
-25.814474 -73.215645 -1.5751848
-22.301418 -72.365417 -0.99381101
-21.187984 -72.671669 -1.624005
-26.664963 -70.937378 -1.4391198
-25.964794 -71.971779 -1.2551889
-22.482616 -71.491653 -0.57359087
-20.982237 -70.941597 -1.5323372
-26.856358 -68.453712 -1.5779222
-22.585466 -68.776108 -1.1468027
-20.517773 -69.649246 -1.7538251
-24.30921 -66.732925 -1.2610544
-23.11447 -67.176483 -1.0165116
-21.770325 -67.671516 -1.3243083
-23.620365 -65.985657 -0.25336492
43.700462 -62.459431 -0.41586953
44.405552 -62.130493 -0.6768263
43.776794 -61.258495 -0.47518048
45.294182 -60.890545 -1.1207843
46.345646 -60.515484 -1.2922922
43.936134 -58.272751 -0.59765977
45.336517 -58.954662 -1.3297712
46.390892 -59.060154 -1.3674257
43.935493 -56.502235 -1.314117
44.893497 -56.879227 -1.5083656
46.571571 -57.355694 -1.4540341
44.76355 -55.094849 -1.595341
46.378078 -55.096954 -1.5262288
43.955402 -53.417583 -1.7170604
44.636028 -53.199959 -1.6849422
46.190166 -53.398537 -1.5879658
-37.190521 -50.816708 -1.6729952
-39.049797 -49.765785 -1.5660658
-36.200348 -44.199375 -1.0040187
-35.544342 -44.427185 -1.0247191
-36.231415 -43.753349 -1.0810981
-30.874218 -40.131813 -1.9596113
-42.403202 -38.130695 -1.1049976
-36.007774 -39.824837 -1.2490535
-35.841122 -39.663788 -1.1154251
-32.541595 -38.623165 -1.351964
-22.377014 -39.787746 -1.9876485
37.014771 -38.562962 -0.3525902
39.076912 -38.295628 -0.17663151
-42.904648 -36.693455 -1.2469796
-35.157448 -36.714794 -1.6789002
-32.375595 -37.378956 -1.5062013
-31.866955 -36.867493 -1.4453323
33.546371 -36.270485 -0.64582717
34.843716 -36.626534 -0.65079647
37.147228 -36.821598 -0.36634719
38.726574 -37.526138 -0.29375011
-42.424248 -35.07933 -1.1353953
-41.432594 -34.71698 -1.2941961
-38.496635 -34.947262 -1.8683845
-36.964294 -35.206501 -1.5685552
-35.628208 -35.227314 -1.968914
31.448076 -34.354908 -1.3897015
33.275906 -34.721008 -0.7889623
34.982952 -35.109077 -0.59324926
36.550858 -35.456242 -0.44236606
-42.434021 -32.849056 -1.1792026
-41.029064 -33.165531 -1.3525821
-39.778008 -33.302509 -1.4123347
-30.545639 -32.62854 -1.67239
29.430864 -32.735382 -1.822513
31.142111 -32.817776 -1.3760695
32.745621 -33.262142 -1.0483922
34.394863 -33.547405 -0.75121433
-43.025532 -31.014681 -1.052507
-40.713108 -30.701387 -0.88103855
-39.774311 -31.205868 -1.351873
-36.623463 -30.775066 -1.2106926
-35.541363 -30.892555 -0.84659517
-30.511429 -31.422256 -1.3256041
-29.951172 -30.056444 -1.387944
-21.378437 -31.284487 -1.8710361
29.359421 -30.904896 -1.6412102
30.81986 -31.293272 -1.3702527
32.272602 -31.463566 -0.86738777
-44.182796 -28.652081 -0.91399807
-43.533501 -29.140711 -1.076568
-40.553841 -28.780802 -1.0879313
-39.666077 -28.768476 -0.81991303
-36.508793 -29.856846 -0.37367567
-34.274681 -28.940872 -1.8559957
-32.941547 -29.026947 -1.7874632
-30.84399 -29.545408 -1.6639374
27.450911 -28.618711 -1.7235799
28.831537 -29.175995 -1.5664408
30.439079 -29.745209 -1.1149631
-44.355865 -27.332102 -0.71899641
-43.844551 -27.81204 -1.1472511
-41.013634 -27.614307 -1.0201437
-39.597137 -27.72192 -0.78164881
-32.046478 -27.187757 -1.9328108
-31.490341 -26.667496 -1.9173616
25.900925 -26.854475 -1.7268276
27.146702 -26.976852 -1.7373877
28.442444 -27.642496 -1.5750648
-46.136658 -24.110689 -0.20167893
-45.314632 -25.033094 -0.52270639
-33.90921 -24.314545 -1.8114727
-30.573387 -24.600897 -1.0571944
25.496477 -25.542009 -1.7041925
26.412882 -25.360392 -1.7424734
-46.561073 -23.027241 -0.40211388
-44.822445 -22.619244 -0.76348251
-43.798042 -22.880501 -1.3855652
-34.649582 -22.910236 -0.43021432
-33.383911 -23.034618 -1.3065506
-31.030418 -22.76165 -1.5772855
-28.409271 -22.870111 -1.6991061
-48.03931 -20.7752 -0.62435871
-46.958069 -20.893948 -0.41306099
-45.11351 -21.177162 -0.77562213
-43.206554 -20.911583 -1.5693513
-41.023373 -20.474859 -1.0459939
-39.625755 -20.540411 -0.67979288
-34.562378 -21.684818 -0.13529459
-33.158737 -21.857153 -1.1939527
-29.038345 -20.570438 -1.5300082
-27.432659 -20.255573 -1.3441536
23.026829 -20.702003 -1.5159848
-48.062439 -19.862913 -0.085239291
-46.392773 -19.109653 -0.50797307
-45.331287 -18.846277 -0.56370747
-43.529869 -18.837729 -1.6015662
-41.478477 -19.659184 -1.6501702
-38.570686 -19.236679 -1.7959163
-37.658211 -18.70715 -1.7041901
-34.417137 -18.642996 -0.24658911
-33.570911 -18.773327 -1.5016575
-30.391947 -18.386803 -1.0396436
-28.634819 -18.941727 -1.1941448
-27.49715 -18.813625 -1.2989764
-25.698223 -18.311684 -1.8512123
21.324013 -18.86157 -1.6959032
22.370445 -19.354053 -1.6969171
-46.393375 -16.83839 -1.4435265
-45.029354 -17.199419 -0.44873777
-43.488937 -16.527386 -0.32150754
-38.094013 -17.547813 -1.9365234
-37.58564 -17.247765 -1.7964728
-34.60413 -16.65896 -0.84735376
-33.667465 -16.9877 -0.79955488
-30.908907 -17.550131 -1.2478558
-28.614315 -17.401485 -1.2835618
-27.419638 -17.405943 -1.2143704
-24.884098 -17.215055 -1.8740678
-23.626236 -16.137197 -1.6392901
20.647539 -17.086294 -1.7608272
-46.042793 -15.893306 -1.9095285
-44.250393 -15.686148 -0.43908268
-43.270809 -15.469004 -0.37769422
-41.618549 -14.771517 -0.22920504
-36.832745 -14.421991 -0.49587303
-35.192577 -15.176065 -1.2450018
-33.613361 -15.569275 -0.19281295
-24.682308 -15.026142 -1.4236611
-22.808641 -14.827513 -1.7790282
-21.777515 -14.493476 -1.9632877
-48.987423 -13.172647 -0.97884274
-47.042538 -13.578962 -0.89226568
-38.44812 -12.920469 -1.2979038
-36.896679 -13.591125 -0.54479343
-35.094788 -12.848217 -0.63251185
-32.417053 -12.555128 -1.1604226
-30.891138 -12.677811 -1.3600789
-29.587856 -12.591512 -1.5202641
-26.139282 -12.080403 -0.41084111
-24.507021 -12.428995 -0.55576611
-22.861193 -12.764794 -1.2356352
-21.48064 -12.409832 -1.3703332
-19.798084 -12.243631 -1.9706763
-16.688015 -12.311865 -1.3423347
-40.460098 -11.149141 -0.24589746
-39.724335 -10.885931 -0.2627337
-35.205887 -11.386821 -1.2204832
-32.566536 -11.432958 -0.91642845
-31.043798 -11.476817 -1.0879006
-28.821896 -10.719759 -1.0601085
-27.221638 -10.564262 -0.71732658
-24.984943 -11.370258 -0.58091342
-22.593845 -11.180832 -1.2183166
-21.382622 -11.293891 -1.4094138
-19.263634 -10.921836 -1.6587701
-17.313799 -10.331927 -1.824701
-30.487713 -8.9607191 -0.54632163
-28.613361 -9.3048182 -0.67111063
-27.731541 -9.1666183 -0.75132602
-24.900845 -9.164278 -0.61742669
-22.624567 -9.4019995 -1.4187644
-21.240322 -8.7251787 -1.1075256
-19.027405 -8.6357441 -1.1014808
-16.767424 -8.6179676 -1.5478349
-15.092519 -8.490447 -1.5848151
-13.133791 -8.4748182 -1.210596
-10.964485 -8.3788528 -1.7593789
-9.2805939 -8.0984287 -1.9914379
-34.845005 -7.5318532 -0.097126722
-29.069275 -6.8015585 -0.25899956
-27.517546 -7.6648822 -0.43816489
-24.573103 -7.6272507 -1.1189212
-22.490074 -6.8910909 -1.1700598
-21.269741 -7.4565239 -1.0764134
-18.584003 -7.1415305 -0.63785917
-17.126425 -7.1440554 -0.86053693
-14.78784 -7.0121593 -1.206794
-13.264134 -6.8404889 -1.3146402
-11.036606 -6.4673142 -1.1787808
-9.171114 -6.4861369 -0.51972407
-7.4201288 -6.2701645 -1.6483675
-5.4645848 -6.3823352 -1.776315
-1.3893615 -6.081214 -1.7934608
1.9104619 -6.9031172 -1.8070068
3.5210366 -6.249115 -1.7958579
-30.422787 -5.7634692 -0.27152294
-28.91573 -5.6455717 -0.30851483
-25.460426 -5.2433929 -0.36863506
-18.225082 -5.8188143 -0.84695929
-16.857531 -5.5078883 -0.48142594
-14.732698 -5.3282075 -0.82810134
-12.644403 -5.3838382 -0.72891188
-10.81962 -5.378109 -1.0122064
-9.1322689 -5.2849479 -0.58677638
-7.012445 -4.8708448 -1.3002788
-5.2212996 -4.4184613 -1.0330386
-3.0134466 -4.5470929 -1.5570173
-1.4082843 -4.3919468 -1.5366971
0.9378438 -4.3267241 -1.5502347
3.2460399 -4.5255651 -1.7960342
5.0536933 -4.3648872 -1.7872357
6.1738262 -4.1609216 -1.7680216
-16.19393 -2.9690466 -0.27107316
-15.130091 -3.0975745 -0.52540296
-12.670332 -2.99545 -0.6676352
-11.326513 -2.3424442 -0.71844655
-8.4156399 -3.3708737 -0.50359684
-6.9050217 -2.9465842 -0.56239057
-4.9701915 -3.0911434 -0.89043444
-2.9831839 -2.8880584 -1.1157662
-0.99097133 -3.2150779 -1.3968416
0.9980523 -2.8891249 -1.4444301
3.0057497 -2.975426 -1.6290344
4.8360362 -3.0066247 -1.6328955
6.8381944 -2.5378466 -1.3901365
9.081275 -2.4623585 -1.8528014
10.96559 -2.051199 -1.9009588
-16.178368 -1.505982 -0.1183714
-15.031268 -1.6352109 -0.32910296
-12.154774 -1.4911541 -0.3237029
-10.973965 -1.137171 -0.44771585
-8.8774881 -1.4367332 -0.57033545
-6.774014 -1.0070025 -0.42317179
-4.9688997 -1.1034791 -0.46165505
-2.9417436 -1.1021374 -0.76717931
-1.1292353 -0.85797668 -0.5125488
1.2726026 -1.2529373 -0.93977779
3.0791423 -1.0809966 -1.3188077
5.055182 -1.0462258 -1.3280545
6.9182334 -1.1146201 -1.2641988
8.9883204 -0.72714931 -1.3721397
10.752496 -0.36241528 -1.4036995
12.74625 -0.41808578 -1.5341393
14.530149 -0.87716264 -1.5782733
16.099377 -0.18757439 -1.5257413
18.556166 -0.13578796 -1.4953108
-15.604175 0.031211689 -0.018161684
-10.800645 1.566442 -0.099495426
-8.481473 0.98475254 -0.3006759
-6.3747902 1.0541911 -0.2681053
-4.9865589 1.030567 -0.43785065
-3.1155696 1.1004376 -0.61389321
-1.1714555 0.93069315 -0.54352492
1.1496371 0.79333258 -0.29318815
2.9368145 0.83866954 -0.90038395
4.8163075 0.60234541 -0.93753356
7.0892262 0.28458461 -0.9336952
8.9619637 0.33496034 -0.94429368
11.282419 0.30320707 -1.2541502
13.02093 0.69601709 -1.2712312
14.91672 1.1909215 -1.2912463
16.773018 1.6152498 -1.3761396
18.738951 1.5111595 -1.3921808
20.087217 1.9605976 -1.4659213
-14.441181 3.421356 -0.028019667
-12.969719 3.7212923 -0.22376189
-10.9339 2.9319637 -0.18889745
-9.225894 3.4338107 -0.2996178
-6.7712774 2.9168267 -0.18733954
-4.7352848 2.2920561 -0.33039039
-2.9060032 2.6448309 -0.44686231
-1.0336525 3.0262871 -0.479902
1.0204718 3.2643011 -0.54567862
2.8847208 3.0200696 -0.65467316
4.9442005 2.9247301 -0.77723712
6.8952737 3.2894046 -0.82292163
9.002717 3.4868634 -0.76560086
10.777931 3.6709471 -0.59750402
12.984883 3.0606616 -0.34379369
15.199804 2.6518965 -0.66589004
17.276333 2.4021273 -1.126404
19.079729 2.6689851 -1.1985319
20.956352 3.1574674 -1.2772684
22.824186 3.6198778 -1.2629286
24.350597 3.846071 -1.3896146
-26.036573 5.4618878 -0.035002381
-25.480476 5.65941 -0.046049889
-20.830086 5.9097562 -0.090117514
-16.544462 5.0243902 -0.43780276
-15.802658 5.4847288 -0.34866315
-12.650372 4.703095 -0.27109486
-11.187638 4.8544874 -0.2615318
-8.6854353 5.0989795 -0.19407947
-7.006948 5.0826254 -0.13573943
-5.0559926 5.2295012 -0.081149034
-3.2060633 5.5094032 -0.10884918
-1.1918881 5.1426706 -0.61999583
1.5003666 4.1771336 -0.29338104
2.9607635 4.5259418 -0.34764329
5.0270114 4.8723879 -0.31052357
6.7812843 4.7629256 -0.3865236
9.1831751 4.9662623 -0.59323823
11.033792 5.105165 -0.439096
12.892854 5.022099 -0.33151492
14.968178 5.0544071 -0.26061603
16.956976 5.1348867 -0.16807429
18.821476 5.3221273 -0.24310422
21.196894 4.5163598 -0.33048087
23.053381 4.6909056 -0.57565999
25.066189 4.651526 -1.0658033
27.051203 5.0638213 -1.1306844
28.930819 5.5189762 -1.1511691
30.839409 5.7539601 -1.2073547
32.798595 5.5077333 -1.7430223
-22.175497 6.4817595 -0.24920833
-21.024956 7.0172648 -0.14117703
-18.926037 6.8225031 -0.11897594
-17.462858 6.8356509 -0.52710956
-13.14957 7.5829635 -0.23960991
-10.196953 7.1230631 -0.22559807
-8.7499657 7.187017 -0.45456293
-6.9917431 6.3535519 -0.19623902
-4.7740426 6.7557335 -0.058912572
-3.172389 6.9554195 -0.06705156
-0.72658801 7.047616 -0.094434872
0.84152722 7.4151702 -0.10547367
3.3960118 6.8871641 -0.17151472
4.5209823 6.644855 -0.1030558
7.0715375 6.4268064 -0.1329537
9.2026453 6.3197122 -0.19302568
10.960411 6.2567544 -0.22102956
13.021182 6.347353 -0.16215016
15.048571 6.6284351 -0.20589653
16.673277 6.5196614 -0.1942542
19.104984 6.5893111 -0.10680701
21.026968 6.9447742 -0.11759803
22.666014 6.8041553 -0.23748852
25.340508 6.3085327 -0.21017653
26.958532 6.5082994 -0.46395272
29.138168 6.5754547 -0.59137398
31.115849 6.5719624 -1.005941
32.911213 6.9439182 -1.009304
34.945694 7.3622804 -1.229063
36.697971 7.3860235 -1.4197472
38.223423 7.623045 -1.5822024
-20.680504 8.3474503 -0.16862461
-18.420715 8.2696762 -0.13513963
-15.519072 8.9279089 -0.10147156
-12.544262 8.9376364 -0.3664653
-11.810836 8.186141 -0.15337111
-9.2607632 8.6538467 -0.44909042
-6.4556785 8.9339943 -0.076669246
-4.9496188 9.069912 -0.14860249
-2.9218872 8.6548367 -0.046193063
-0.79795456 9.0814342 -0.065357327
1.0858862 9.0024147 -0.11788741
3.0461378 8.8941898 -0.14516918
4.6959009 8.9978762 -0.1086038
19.572639 8.1366177 -0.016596951
21.804182 8.5477343 -0.052165326
22.308231 8.1141262 -0.39302322
28.807081 8.1468678 -0.09779644
31.19912 8.6404285 -0.19478008
33.446838 8.3289528 -0.67583632
34.912098 8.4916859 -0.73239315
37.07095 8.8021545 -0.99221796
38.819271 9.1463509 -1.0670747
40.896881 9.4813099 -1.0531988
42.963936 9.5129929 -1.1394068
44.871128 9.688509 -1.4504026
46.106789 9.908205 -1.6694486
-14.756973 11.448423 -0.37386224
-13.3389 10.367218 -0.34436211
-11.367107 10.855115 -0.16521527
-6.3783631 10.687698 -0.058656618
-4.8076715 10.964518 -0.10444946
-3.0022051 11.215522 -0.098826453
-0.80251032 10.770111 -0.082962982
1.0778592 10.958928 -0.11786472
3.2265441 11.218292 -0.14255783
4.7743478 10.923114 -0.10269085
6.0882392 11.252653 -0.27116895
32.463112 11.573686 -0.25983933
34.895714 10.896551 -0.12328824
37.695995 10.251244 -0.62412953
39.243198 10.479834 -0.8242141
41.01442 10.868069 -0.9324984
43.006962 11.027987 -0.95585001
44.873131 10.962111 -0.81784177
46.495136 10.754931 -1.0214279
49.584633 11.302308 -1.9169666
50.688217 11.450686 -1.8856143
-15.017791 12.879971 -0.084635243
-13.772551 12.543285 -0.47343332
-11.714798 12.174436 -0.027810263
-9.5445747 13.736397 -0.34393767
-6.8189473 13.006406 -0.1315455
-5.3818173 13.630969 -0.046251442
-2.6407902 12.297916 -0.11960132
-1.1230735 12.917321 -0.095599443
1.0555899 12.792942 -0.068888612
2.9943051 12.695844 -0.09984754
4.9419751 12.765304 -0.22219032
7.3654046 12.940877 -0.23811881
32.217026 12.27895 -0.25269273
38.268063 13.879354 -0.22964334
41.590984 12.215936 -0.49596766
43.008991 12.554522 -0.53498286
44.905869 12.685492 -0.81121284
46.92688 13.256054 -0.60555458
49.092289 13.149273 -1.6127785
50.977829 13.230721 -1.5190533
52.827065 13.287753 -1.2577956
54.988777 13.145047 -1.489108
56.533951 13.748262 -1.360998
-9.6045446 14.369711 -0.34074599
-6.8057952 14.916597 -0.088913515
-4.9427075 14.779844 -0.074707642
-0.42647156 14.576344 -0.024909681
1.4267229 15.047068 -0.03996193
2.9517019 15.837957 -0.11316702
5.2065992 15.156789 -0.2217104
6.7189898 14.496947 -0.22654574
8.2496214 15.348127 -0.13090858
37.239105 14.004045 -0.030128479
38.759361 14.391289 -0.28421098
45.628925 14.291559 -0.13047865
46.770828 14.911571 -0.059894633
49.323586 14.354373 -0.058601145
51.198685 14.947726 -0.65793175
52.810696 15.300048 -0.81695992
54.971088 15.78143 -1.5216349
57.283211 14.602199 -1.2702416
59.110691 14.761204 -1.1141031
60.997326 15.508918 -1.0552353
62.11647 15.95518 -1.0081822
-11.583311 17.080372 -0.045135178
-6.9340529 16.944366 -0.093186244
-5.4338365 16.529171 -0.15865383
-1.4433813 17.227116 -0.25157154
1.6502994 16.902079 -0.14471596
3.0910192 16.27066 -0.18505077
4.9238195 17.120838 -0.13883044
7.3739834 16.889547 -0.10844633
8.5791187 16.861597 -0.1864077
51.704712 16.117254 -0.73517191
53.067749 16.444593 -0.41157264
55.187431 16.60161 -0.44334999
56.933689 16.849928 -1.1208586
58.63345 17.361967 -1.6164404
61.158035 17.009872 -1.4666781
62.416759 16.177557 -1.2051667
-11.000173 18.62779 -0.038195707
-9.064147 19.474363 -0.20013897
-4.7049479 18.990513 -0.0965802
-2.6198869 19.084141 -0.11332089
7.0367861 18.861856 -0.19255887
8.4929485 19.502522 -0.15520509
52.975361 18.178255 -0.032944895
57.08886 18.6189 -0.03564183
59.08699 18.555882 -0.31091097
60.772434 19.380207 -0.27408534
63.189995 19.662313 -0.85464203
64.812675 19.186573 -0.87726134
66.123169 19.297787 -0.67744064
-8.9370594 20.134724 -0.17749935
-5.0298843 20.763126 -0.13534956
-1.7805126 21.706238 -0.15428054
5.9374418 20.259754 -0.0070332587
7.2101073 21.434019 -0.15988062
9.1497908 21.088861 -0.13529047
59.48304 20.369244 -0.3734028
63.127693 20.140305 -0.058277249
-8.8963833 23.392729 -0.019576676
-1.4353752 22.650843 -0.16033888
3.7862225 22.496063 -0.2990554
4.2801275 22.904003 -0.30159044
7.6896977 22.3269 -0.17205659
8.1391172 22.892754 -0.25486597
12.959314 23.186863 -0.16449307
-8.8349733 24.183531 -0.0055510625
8.9634771 25.318022 -0.35513899
10.797935 25.570467 -0.28324971
9.6993256 26.081055 -0.36446968
11.296033 26.022772 -0.28656366
5.3318548 29.566452 -0.071406431
3.3565848 30.673435 -0.127211
51.267906 -126.75285 1.7517912
53.016544 -126.17355 1.4634566
53.045246 -125.73743 1.5345674
53.855907 -122.70278 0.39982182
55.059113 -122.54723 0.72299439
56.522209 -122.62207 1.2721658
39.198288 -112.75314 1.8141685
40.954567 -113.16512 1.9192036
50.547817 -113.17744 0.48235083
55.376396 -113.47885 1.9321477
58.476074 -112.12739 1.9477464
35.719902 -110.7179 1.0050554
37.048393 -110.867 1.2289137
38.570118 -111.12561 1.4723358
57.742584 -111.97757 1.9091916
58.839092 -111.41154 1.7902436
13.560246 -108.68626 1.3767138
29.386145 -108.77106 1.7726212
31.042837 -108.47633 1.4392865
32.025513 -108.42897 1.2327313
35.836552 -109.89973 1.7828205
37.992989 -108.04011 1.5727663
40.767014 -108.07404 1.4738405
43.631348 -108.57251 0.45502371
44.122734 -108.54962 0.49989402
51.173401 -108.74853 1.8043208
57.676647 -109.72606 1.2233355
58.824249 -109.39237 0.85768443
10.195933 -106.38629 1.5976998
13.483701 -107.95103 1.1293536
14.511432 -106.16787 1.4968091
28.979858 -106.64056 1.7374198
30.744856 -107.19582 1.3065912
33.170525 -106.34267 1.7414217
35.212326 -106.24303 0.87651378
37.777973 -107.40662 1.1204145
39.123344 -107.32444 1.0942956
41.171032 -107.44762 0.66109896
43.874832 -106.59255 1.3406785
44.352077 -106.60177 1.243722
47.679947 -107.19681 0.51364893
48.822582 -106.70742 0.99449253
50.186417 -106.03168 0.91435969
-2.138624 -104.08873 0.91618407
1.3333454 -104.74248 1.5744823
2.0614953 -104.66339 1.9847466
9.7862282 -105.85909 1.4630717
10.923927 -104.29178 1.0050024
13.902247 -104.32278 1.0224134
15.032224 -104.68221 0.74270576
16.937616 -104.64886 1.2480758
26.98197 -105.44546 1.7878451
28.427917 -104.51022 1.8401852
31.666571 -105.19175 1.053461
32.924629 -105.05013 0.64884269
34.308479 -104.27962 0.77932203
41.199394 -105.1239 0.8721143
43.126682 -104.88647 1.2828382
44.266228 -104.319 0.67523086
49.07177 -105.8231 1.3460547
-1.3068374 -103.20036 0.95376652
1.4950249 -103.20045 0.78465098
2.860806 -102.78069 1.1797888
5.0072417 -102.21557 1.0108104
9.0469732 -103.04619 1.8297561
11.317084 -102.2371 0.44125617
13.239417 -102.69101 1.0864601
14.862016 -102.98952 0.75297278
17.820023 -102.22273 1.2117244
18.727188 -102.46835 1.2046773
21.176365 -102.57085 1.931964
23.937519 -102.9803 1.9237672
25.314167 -102.9052 0.70048797
26.576214 -102.72047 0.48460096
28.899336 -102.63558 0.81639957
31.103058 -102.70183 0.66461003
32.855465 -103.38989 0.54544705
34.655132 -103.59335 0.40466771
40.769909 -102.40224 0.19416809
43.10006 -103.868 0.86904466
44.792858 -103.72957 0.091337822
-3.4481797 -101.75307 1.5320696
-0.67273891 -100.9437 1.3539031
0.67358059 -100.16725 1.5385903
3.7003424 -101.03083 0.95218289
4.7768555 -100.70307 1.0684881
6.9853778 -100.43733 1.6042469
9.0105333 -100.37327 1.3066735
11.111471 -100.74102 1.1332579
12.76354 -100.57512 1.0124246
15.150273 -100.55727 1.1189426
16.625269 -100.7854 1.0391811
19.073076 -100.63206 1.1824453
20.920153 -100.9527 1.5855531
22.690138 -101.12037 1.7839937
25.095331 -101.152 0.90169793
27.294437 -100.71605 0.81057703
29.000696 -100.46806 1.1864654
30.884422 -100.84165 0.54831284
32.162842 -101.70296 0.16134363
39.947563 -100.39389 0.12311059
40.416023 -100.56371 0.16383183
-0.5127883 -99.427132 0.90391952
1.0432879 -98.746956 1.0184374
2.9667997 -98.686935 1.2442234
5.1045794 -98.797508 0.97049338
7.1623864 -98.63282 1.044516
9.0778513 -99.162544 1.2639707
11.032917 -99.519524 0.91226345
13.042495 -99.415794 1.1712439
15.068971 -99.418457 1.1440918
17.046984 -99.302193 1.2073426
19.028019 -99.201439 1.0499452
20.832857 -98.946335 1.4423054
22.489792 -98.38382 1.7301131
27.542456 -99.458298 0.61078644
28.825796 -99.12915 0.68195492
30.673092 -99.255142 0.1072549
-16.950531 -96.933784 1.1116896
-14.546056 -96.594147 1.1930988
-13.706492 -96.486656 1.2191968
-0.69480777 -97.052818 1.5936235
1.0556859 -97.25235 1.134696
3.0012112 -97.053291 1.0591446
5.1282401 -97.210533 1.2756912
6.8998346 -97.027809 0.76943058
8.9816809 -96.872749 1.0696672
10.923921 -96.676689 0.98044604
12.368746 -96.568199 1.2845023
15.418727 -97.055244 0.61934328
17.12244 -96.68589 0.7667312
19.18396 -97.481659 1.3764911
20.947372 -96.741547 0.70911902
22.504757 -96.523613 1.0855972
27.527164 -97.038383 0.32210052
28.888866 -97.426544 0.2530179
-18.862066 -94.666397 1.1014706
-17.720097 -94.26973 1.5534027
-14.732117 -95.337448 0.62440825
-13.042879 -95.093773 1.2271911
-11.326242 -94.560715 1.2947364
-8.6528063 -94.369591 1.6173208
-4.8073492 -94.603394 1.4880694
-2.73035 -94.163757 1.6149546
-1.0533065 -94.867767 1.6072313
1.4272957 -95.872269 1.1283191
3.2493479 -95.039604 1.0622965
4.703989 -95.214745 1.3508191
7.3151755 -95.606598 1.7413908
9.4843378 -94.715546 1.0196698
10.796807 -94.953499 1.1799027
12.745909 -94.899986 1.039477
15.372579 -94.670624 0.63089436
17.041826 -94.699883 0.95812637
19.1747 -95.400406 0.67952734
21.105471 -95.107887 0.747958
22.76088 -94.471054 0.83016545
25.137672 -94.493294 0.53001219
27.350325 -94.834595 0.81944162
28.45249 -94.908638 1.0065364
31.362593 -94.654671 0.14304814
32.839386 -94.547432 0.49350387
-15.131241 -93.470642 0.51280606
-12.849792 -93.112427 1.583957
-10.515769 -93.051651 0.98018014
-9.2748604 -92.931099 1.5763568
-7.9097166 -93.585999 1.6991552
-4.4931936 -92.863899 0.86447126
-3.3077459 -92.879051 1.2528217
-0.79292846 -93.933899 1.4023095
3.4694865 -93.107559 1.0446571
4.6501007 -92.763542 0.81554949
6.6776996 -92.950417 0.22037502
9.6105595 -93.279083 1.0631715
10.788717 -93.14695 1.3842776
13.088647 -93.316322 0.94648737
14.809683 -93.141335 0.83578533
17.125149 -93.121803 0.58964807
18.964094 -92.981697 0.35522959
21.460384 -93.017067 0.69467819
23.180456 -92.720398 0.83630741
24.98472 -92.794151 0.80873388
26.971367 -93.078285 0.89705217
28.961508 -92.714394 1.1075594
31.096779 -92.797256 0.90890223
32.333652 -92.866791 0.97257501
35.681087 -92.154488 0.024916768
49.701046 -92.393867 0.21912546
51.041946 -92.345306 0.6661312
-10.687978 -91.743958 1.4022131
-9.7881804 -91.730705 1.4795951
-6.5695772 -90.221718 0.25017226
-3.5077126 -91.85701 1.717712
1.3624779 -90.28611 0.21129146
3.0314338 -90.836494 0.63011634
4.9503832 -91.184074 0.68026131
6.5606508 -91.012581 0.46084228
8.1302099 -91.655693 0.063009381
11.342185 -90.758415 0.3013117
12.689326 -91.130096 0.093204781
14.792143 -90.890358 0.12241206
17.139561 -91.697479 0.28950608
19.239565 -91.107162 0.15524969
21.553759 -90.798698 0.71096629
23.237032 -91.244698 0.92043757
24.805897 -91.221947 0.84610057
27.374432 -91.263824 0.58062863
28.968044 -91.611031 0.9561286
30.984915 -91.139259 0.76732075
32.973633 -91.136711 0.78909403
35.168694 -90.796936 0.78935623
36.740692 -90.766975 1.0869192
39.595497 -91.149452 1.3714583
41.676105 -91.282951 0.21740656
42.932289 -90.87339 1.0615009
44.580002 -91.205765 1.715176
47.65337 -91.383812 0.44115573
48.939095 -91.471489 0.39348027
50.670769 -91.557617 0.40758789
53.88406 -90.135155 0.48264974
54.035683 -90.190727 0.65745693
-6.1954012 -89.987839 0.19781458
-5.987524 -89.839005 0.16501582
-2.4232497 -88.793877 0.52695632
-1.0832278 -88.37381 0.33302629
0.91810942 -89.449821 0.066731572
2.9128749 -89.308434 0.39715731
4.4663286 -89.860878 0.4830184
12.897687 -88.995262 0.1876673
14.447879 -89.564812 0.29271698
22.608263 -89.748032 0.94686276
25.50036 -88.803108 0.3727324
26.854193 -88.44519 0.26805651
29.465612 -89.169212 0.27995819
31.011206 -88.958054 0.33725917
33.065441 -89.273819 0.29780605
34.920383 -89.487953 0.45803183
37.193184 -89.186424 0.54016221
38.792934 -89.453026 0.30825549
40.638191 -89.138084 0.25683582
42.775917 -89.688347 1.1924915
44.486965 -89.844078 1.3178726
-3.0781403 -87.16156 0.55924684
-0.76492834 -86.935326 0.59566605
0.33102307 -86.76004 0.71147567
19.229675 -87.461296 1.004384
20.111603 -87.479378 1.1570282
25.306274 -87.354431 0.84896487
26.5443 -87.729195 0.10407867
29.341253 -87.594688 0.66289687
31.022526 -87.531464 1.0260754
32.737968 -87.422592 1.5220287
-26.704395 -85.405602 0.99439305
-24.454948 -84.769119 0.3418287
-12.219613 -85.516624 0.68265152
-4.9470692 -85.409302 0.34357476
-2.9616613 -84.948975 0.43682891
-0.9588002 -84.993294 0.40143931
0.31677479 -85.437981 0.37088063
-2.2190187 -83.966888 0.50709641
-1.5387886 -83.910797 0.28176352
-23.271566 -67.13562 0.3549633
39.102333 -40.132458 1.0494971
-42.53574 -38.123749 0.020832598
37.477207 -38.507183 0.72345597
38.539413 -39.474232 0.92620933
-42.690155 -36.928181 0.87925941
-41.795544 -37.068985 1.8495764
35.400146 -36.503952 0.2860584
36.497749 -37.31506 0.51009572
-43.335884 -35.687805 0.77480733
34.434658 -35.629597 0.099656582
-42.323322 -32.452927 0.6463502
-41.493652 -32.664635 0.56350702
-39.130852 -32.539467 0.11774999
-42.733585 -31.255421 0.71129841
-40.542881 -30.436274 0.68002868
-39.362392 -30.721617 1.0938551
-36.484779 -30.61883 0.96985805
-35.341423 -30.608917 1.2465156
-33.963608 -30.835806 1.7934437
-44.284084 -28.366764 0.28904477
-42.721409 -29.085266 0.39529368
-40.527321 -28.689508 0.79696256
-39.325851 -28.924799 0.74091202
-36.271362 -29.721563 1.1081692
-35.727741 -29.711794 1.2593755
-44.433075 -27.017929 0.37575388
-40.919098 -27.260822 0.75838375
-39.394466 -27.61479 0.99058527
-46.419769 -24.162157 0.50838649
-45.51239 -24.880463 0.52920359
-42.97187 -25.027071 1.427045
-41.590443 -25.230604 1.229387
-46.595894 -22.986065 0.5621199
-45.03714 -23.029047 0.64482158
-43.345692 -23.043406 0.98130566
-39.164562 -22.470371 0.88106745
-34.737938 -22.689646 0.18404758
-48.360836 -20.464165 0.82426161
-47.469704 -21.098141 0.88968939
-44.8405 -21.147411 0.63036793
-43.767128 -21.564304 0.7081238
-40.543842 -20.916759 1.0812505
-39.450066 -21.512445 0.61180949
-48.709827 -19.351921 0.9912582
-47.093937 -19.066114 0.85365337
-44.550686 -19.069157 0.4852972
-43.650784 -18.359329 0.45756161
-34.507751 -18.507082 0.65288264
-33.306694 -18.43289 1.2245021
-28.064745 -18.761175 0.60843301
-27.696987 -18.683508 0.58892673
-49.384651 -17.706989 0.96932685
-46.654922 -17.006407 0.46766907
-45.614498 -16.581163 0.71953201
-43.233734 -17.761761 0.31192741
-34.759659 -16.607643 1.2494593
-33.364895 -17.205677 1.4843439
-30.862005 -17.345289 0.55851859
-28.52915 -17.365442 0.47864178
-27.700527 -17.981903 0.53578049
-46.475266 -15.287167 0.54099917
-45.324711 -14.913643 0.84189844
-42.979492 -14.715248 1.0867414
-41.80019 -14.541621 1.1387171
-38.39175 -14.485932 0.052770555
-36.547741 -14.470695 0.96963727
-35.305462 -15.073745 1.322597
-33.558712 -15.574771 1.1732867
-44.741608 -13.545621 0.94780624
-43.097748 -12.891994 1.109833
-41.399624 -12.388593 0.89699155
-38.258945 -12.936511 0.7987985
-37.290436 -13.243147 0.82940441
-35.803829 -13.903689 0.64559942
-32.277 -12.116196 0.34295279
-30.33864 -13.080554 0.27090493
-28.553961 -12.671465 1.7003405
-26.482119 -12.161956 1.0283914
-24.552418 -12.471525 0.61962283
-23.470312 -12.409013 0.69091803
-21.815729 -12.198635 0.49883729
-43.2589 -11.318011 1.3974143
-40.769516 -11.36022 1.1089906
-39.173565 -11.657498 0.76343983
-36.740807 -10.606586 0.50057763
-35.272217 -10.430899 0.52380913
-32.981991 -11.061185 0.38432047
-31.028051 -11.00968 0.49987748
-28.579092 -10.492847 0.87093168
-26.852207 -10.824227 1.302163
-24.834366 -11.057685 0.67224556
-23.648991 -11.266101 0.6399582
-21.737497 -11.1496 0.25931254
-43.366802 -9.9480047 1.6748965
-35.29076 -9.9657354 0.81555521
-32.665569 -9.8968964 0.62162
-30.886749 -9.0359249 1.2407209
-28.531109 -9.0999622 0.84631103
-27.262522 -9.4495554 1.1522019
-24.92239 -9.5280113 0.8874138
-23.5207 -9.3427334 1.1234245
-21.131119 -8.5946283 0.10431948
-19.084415 -8.3118258 0.5026201
-17.322462 -8.1861572 1.251961
-34.922913 -7.879087 0.73767686
-33.347363 -7.3383842 0.72218508
-30.593557 -6.6428223 1.3465782
-29.00153 -6.9507856 0.95161235
-27.299385 -7.4090252 1.2809215
-24.966625 -6.3027635 1.2277513
-23.490837 -6.1089325 0.84280527
-21.123672 -7.6995144 0.21214591
-18.56908 -7.1351867 0.78265399
-17.376175 -6.985311 0.64773953
-14.837834 -6.605557 1.4458696
-13.340774 -6.5373845 1.6358747
-10.399201 -6.4339137 0.90466762
-9.0431643 -6.4873362 0.84794658
-7.1606517 -6.3724518 0.89695412
-33.402325 -4.4085221 1.3957989
-31.095816 -5.0374155 1.0780431
-29.190916 -5.8395996 0.50888258
-26.211988 -4.9093151 1.1817486
-24.829168 -5.2774053 1.094295
-23.588036 -5.2269483 0.97101331
-21.314703 -4.6381617 0.57049769
-18.377878 -5.5599279 0.89088804
-16.853849 -4.8453021 0.77305508
-15.201687 -5.0104194 0.83356184
-12.641773 -5.0168276 0.86934125
-10.951107 -5.2044244 0.86511743
-9.0127745 -5.2906237 0.98288655
-7.4538159 -4.648562 0.80265683
-3.1382937 -4.1915512 0.24600899
-32.617683 -3.8108094 1.4753015
-31.967333 -3.7110229 1.8288176
-25.011379 -3.0134232 1.3317125
-23.129536 -3.3182533 0.8407135
-21.686981 -2.1288819 0.94239736
-18.233879 -3.2518997 1.1714636
-17.079311 -3.2690203 0.80683041
-15.249211 -2.5654399 0.83163935
-13.265773 -3.1962454 1.2861984
-10.634912 -3.2522938 1.4965919
-8.4943552 -2.9589593 1.2698596
-7.4901052 -2.7004697 0.93861449
-5.197773 -2.2799423 0.44823816
-2.9225581 -2.7852402 0.99197328
-1.3870096 -2.5668068 0.12107988
0.71895421 -2.632431 0.32072636
5.8399534 -2.3250966 0.29833731
6.4787951 -2.0968401 0.29408789
-25.513792 -1.9993601 1.5200458
-22.888351 -1.704829 0.58244181
-18.158442 -0.14849348 1.2173835
-16.90049 -0.71194893 1.1421192
-15.398337 -1.6166565 0.60413533
-12.57779 -0.78268975 0.18590561
-11.144064 -1.0211331 0.51890057
-8.7974386 -1.1202368 1.2810313
-7.0103836 -0.87935358 1.0029789
-5.2954054 -0.95002395 0.45286015
-2.8731027 -1.052842 0.52064705
-0.84705597 -0.6758225 0.3269954
0.42236042 -0.55250716 0.21927272
2.5657091 -0.13163629 0.36813325
5.4832625 -1.0204418 0.18184492
6.4420662 -0.9770093 0.28826109
8.9236946 -1.3178536 0.22344817
11.431351 -0.47921461 0.21602723
12.163703 -0.18327117 0.29991412
-18.121597 0.41537988 1.4359094
-17.261108 0.38960847 0.85035741
-15.814379 0.32855558 0.5722366
-12.833549 0.34731829 0.41173494
-11.169284 0.78308392 0.31815261
-8.2277021 0.36090004 1.1144373
-6.7122631 0.90044367 0.98168838
-5.1846843 0.91494542 0.75231791
-3.1704488 1.1020502 0.54519421
-0.67237788 0.59301925 0.42395207
0.90041733 0.70064205 0.34729862
2.6013396 0.64313585 0.40594426
4.7694178 0.72924459 0.05742614
6.9018373 0.80864525 0.38595533
8.5904989 0.93693823 0.047625612
11.462951 1.3847816 0.64449871
13.099813 1.4303739 0.56307036
14.762896 1.3169844 0.26325336
16.893309 1.8735136 0.22771403
-26.202009 2.8182807 0.82471317
-25.270864 3.3447723 0.78742826
-23.417089 3.894073 0.72454059
-14.560918 3.4396071 0.37754929
-12.894777 3.567739 0.35532242
-10.537642 3.2491283 0.24145837
-9.1848545 3.3298717 0.19833402
-6.6775727 2.4085195 0.69044054
-4.7407422 2.4296374 0.81388438
-2.7980945 2.9805753 1.0021834
-1.1299787 3.3558972 0.66296726
0.96081108 3.4464974 0.43760142
2.804625 3.6646826 0.43093628
4.8561187 3.6995368 0.80978632
6.4471402 3.7301478 0.49008808
9.3489361 3.9191556 0.99344528
11.587377 3.1040013 0.43439019
13.265725 2.903816 0.51540416
14.886241 2.9357862 0.65591663
17.11554 3.0003874 0.45360947
18.888748 2.6567249 0.34278336
21.159569 3.3652062 0.25984827
22.768112 3.5295126 0.21168213
-29.546734 5.7778811 1.7962844
-26.188271 5.7442932 1.1994892
-25.148157 5.4603295 1.4472784
-22.338503 5.4017234 0.80050504
-20.612772 5.7528458 1.0913399
-18.842999 5.5501909 0.88553715
-17.198521 5.3704219 0.64315081
-14.682646 5.3996773 0.601318
-13.120295 4.8549805 0.47293937
-10.991928 4.9542813 0.34898141
-8.8698988 5.028203 0.1936747
-6.9695277 5.115478 0.12111089
-5.3695388 5.1840563 0.08777827
-2.8342428 4.8106551 0.9817456
-0.96285433 4.3527961 0.63561237
1.4769163 4.2522745 0.21018027
2.5777228 4.4068151 0.34244272
5.3211145 5.3759117 0.81752461
6.6271949 5.1022449 0.45752645
9.1459064 5.4615374 0.58402389
10.991464 5.6836867 0.42501271
12.833995 5.3740373 0.5667147
15.08653 5.1630282 0.559196
16.742025 5.4800625 0.49551886
18.929586 5.2784281 0.31443027
21.279314 4.8883038 0.50024992
23.027723 5.078896 0.47406349
24.948338 5.2550488 0.7014485
26.942528 5.2098689 0.47822478
29.048584 5.4197369 0.33105075
31.274288 5.6591191 0.33848438
32.265465 5.5334597 0.28165638
-28.789715 6.4541793 1.5418413
-27.010908 7.1869316 1.278845
-24.799257 7.0615845 1.318748
-23.026009 7.3210697 1.4486518
-20.650572 6.6628041 1.1811022
-19.02696 6.8715491 1.1163708
-16.687199 7.1921225 0.74217945
-15.147704 6.8073926 0.60282576
-12.672235 7.2011609 0.44125292
-11.108312 6.924067 0.30352029
-9.3790026 6.9247994 0.25238648
-7.2591863 6.9928536 0.14133686
-5.3100324 6.9466796 0.092680156
-3.3931026 6.9841042 0.10549802
-0.78922755 7.1447449 0.09848927
1.0310102 7.1260142 0.078846209
3.4118633 7.0508909 0.78693873
4.7816496 6.6532531 1.1079696
6.9551382 6.5079331 1.1447107
9.1881123 6.4273839 0.52710366
11.114225 6.4865727 0.46788263
12.932851 6.675281 0.62225902
15.051764 6.9572759 0.97302449
16.689018 6.8176756 0.69116259
19.117676 7.0529609 0.34832242
21.163223 6.8891106 0.50865149
22.471666 6.8569036 0.59905314
25.606022 6.5839472 0.076424502
27.258083 6.8975892 0.50165784
29.011602 6.8792205 0.5861513
31.075333 6.9797335 0.7710712
33.08654 7.4725852 0.49884772
34.544003 7.7361093 0.6013813
36.139511 7.9208508 0.20461956
-28.715265 9.1522417 1.8159051
-26.825155 8.688076 1.2780987
-24.488243 8.8576031 1.5342743
-22.80438 9.0582819 1.5654869
-20.938993 9.1403818 1.3130314
-19.227968 8.7162151 1.1460316
-16.662663 9.0747995 0.73098952
-14.861624 9.4288015 0.57304293
-13.347578 8.9161272 0.44715476
-10.79836 8.9903679 0.30023289
-8.7448006 9.00665 0.22690785
-7.2958817 8.7304897 0.21625315
-5.3420262 9.0317926 0.07443773
-2.8210287 8.7299967 0.045285866
-0.97741747 9.0407658 0.11752611
0.90554464 8.912549 0.12679562
3.1084063 9.291729 0.16782515
4.6027617 9.383419 0.19214006
11.092337 9.2905455 1.1668211
15.022455 8.4330387 1.0141001
16.702436 8.7256155 0.74347723
18.863089 9.048173 0.61304033
21.009054 8.9977741 0.65345764
22.628485 8.7782784 0.78102177
24.877047 9.2588339 0.49714923
26.797167 9.4529438 0.61639565
29.138969 8.4305515 0.99547458
30.853008 9.1027918 0.49677885
33.5382 8.7344284 0.83588779
34.714939 8.6874866 0.79705614
36.98296 9.1126099 0.60798657
38.841473 9.6687193 0.65177006
40.512505 9.7498465 0.11954925
-26.521549 10.312745 1.6576033
-24.634695 10.779465 1.5712032
-22.491394 10.497629 1.6925348
-20.771544 10.929773 1.5373913
-19.331755 11.210423 1.3528084
-16.476933 11.155693 0.97784978
-15.038724 10.90598 0.69947171
-12.60726 11.385954 0.39790377
-11.52257 10.849143 0.3012585
-8.7334223 10.97651 0.2267002
-6.8234334 11.091494 0.33284217
-5.017323 11.00278 0.1117911
-2.4278727 10.966664 0.18431431
-0.86634964 10.787756 0.13580143
0.98662585 10.746955 0.080141
3.3123524 11.120038 0.11770851
5.4258399 11.276762 0.24202247
6.3385491 11.609142 0.11142214
16.555393 10.137237 1.5104771
19.276869 10.220677 1.5632416
21.580187 10.118182 1.005299
22.922581 10.559446 0.76717937
24.859968 10.426338 0.69292051
27.007925 11.244356 0.71730393
29.127617 11.156647 0.68109876
31.166239 11.335686 0.78311104
32.800308 11.148044 0.89482558
34.818455 11.284432 0.98285371
37.214169 10.627923 0.50818813
39.034538 10.833716 0.71866935
41.029743 11.010754 0.592251
42.916103 11.256828 0.49039477
44.566422 11.573219 0.34869218
-20.620108 12.751047 1.8214027
-19.007833 13.011586 1.5012486
-16.547894 12.797476 1.1986958
-14.904301 12.951873 1.0151798
-13.259454 13.079958 0.51506245
-10.798994 13.220178 0.34210083
-8.9982309 12.916577 0.25551379
-7.0746269 12.879831 0.37700111
-4.6559892 12.756968 0.089782245
-3.3453045 13.24219 0.12741855
-0.98810661 13.152433 0.13759314
1.4693956 13.026992 0.13996002
2.7150707 12.916886 0.11472268
5.2536478 13.240996 0.23721191
6.7815895 13.184526 0.22943829
25.926594 12.075548 1.0565765
26.781128 12.249269 0.96582031
28.743904 12.527411 1.1678046
31.199305 12.899354 1.0433038
33.047813 12.975325 1.3179657
35.098633 12.677853 1.2047089
36.886669 13.298581 1.2410001
39.11607 13.131246 1.3641394
41.030571 12.802547 1.0567185
42.933804 13.037289 0.62852478
44.823631 12.751365 0.54272473
46.987244 13.342058 0.66993976
49.08358 13.470338 0.10557306
50.580715 13.601674 0.24349096
-20.890339 15.380627 1.4487016
-18.624254 14.863883 1.6685587
-17.0369 15.143465 1.4648387
-14.989032 14.990128 1.3339286
-13.03423 15.041965 0.78338492
-10.644705 14.800282 0.53176612
-9.2251043 15.06141 0.23378913
-7.434617 14.96425 0.2818512
-4.5530725 14.724771 0.09673316
-3.2077522 14.7034 0.25676972
-1.0947977 14.906726 0.16743226
0.93304586 14.466119 0.12025299
3.0284688 15.391138 0.20071493
5.0817285 14.73947 0.22736759
6.5794182 14.940104 0.19650632
8.2726803 15.924631 0.26581171
31.251101 14.0835 1.6537304
33.429699 14.194599 1.568864
35.07217 14.31103 1.5988115
37.028725 14.336161 1.3521011
39.096302 14.715383 1.3342996
41.03804 15.010058 1.7344428
42.884914 14.919724 1.4384571
45.021942 14.622725 1.1122276
47.21769 14.787169 1.1756638
48.562321 14.92663 0.82223296
51.184326 15.142115 0.55436033
52.496201 15.477549 0.55302531
-22.577467 16.57473 1.9288189
-20.5448 16.787165 1.5883884
-18.615662 16.606014 1.8318747
-17.29862 16.783451 1.8329343
-14.760264 16.954 1.5292737
-12.823637 16.802689 1.1112064
-11.497411 17.143204 0.70855367
-9.439353 17.023287 0.26008192
-7.0764308 16.698645 0.23911299
-5.0360122 17.098738 0.16781707
-3.1495638 17.231373 0.14943342
-0.90321606 17.245926 0.23922147
0.91261458 17.053097 0.18982582
2.757035 16.817894 0.36651957
5.4037251 17.167978 0.29622364
6.6452847 16.71384 0.42155495
8.9262991 17.292868 0.4349488
10.192769 17.806684 0.32159951
39.863014 16.035181 1.7420199
40.543633 16.363859 1.8445766
42.229153 16.886898 1.0257759
45.158245 16.5068 1.5011504
47.495277 16.152977 1.0651608
48.441345 16.706306 1.0568604
51.425735 16.259291 1.0201097
52.866611 16.815496 1.0047561
55.004353 16.973858 0.75195575
57.098747 17.16757 0.50282323
59.648518 17.703421 0.14907733
61.09713 17.933264 0.34241152
-19.447113 18.083191 1.5779753
-16.207567 18.804228 1.7974113
-14.63543 19.118637 1.6793323
-12.805922 19.110573 1.340798
-10.888684 19.159435 0.6693958
-9.3093309 18.813196 0.28875589
-6.7542148 19.511215 0.35183245
-4.7706547 19.305794 0.22271675
-3.061116 18.853312 0.24445695
-0.94277084 18.587103 0.19674519
1.0394962 18.496527 0.1102001
2.9483335 18.628963 0.35422447
5.2789388 18.940023 0.21097943
6.5999269 19.192875 0.50952721
9.236227 18.957903 0.476107
10.120337 18.427612 0.3187474
53.837387 18.507895 0.020296812
54.391663 18.794268 0.053435326
57.512077 18.999348 0.88488936
59.141708 18.975657 0.79330957
60.751064 19.348837 0.64292502
62.347683 19.827682 0.21569405
-16.038713 21.507929 1.6001791
-14.512876 21.244394 1.803071
-12.634105 20.853413 1.421968
-10.87118 20.829613 0.93785512
-9.5617876 21.269394 0.51954132
-7.0042291 20.378654 0.29302803
-5.4671226 21.060179 0.37781787
-3.0902998 21.00034 0.19842975
-1.4737434 21.495907 0.36544621
0.34027746 20.393724 0.20400842
3.6581361 20.985682 0.38751069
4.5732636 20.840326 0.30317369
7.8499503 20.135513 0.70180607
9.3662891 21.047148 0.55908632
11.144986 21.136225 0.55987501
12.356906 21.707302 0.42132777
59.766617 20.0693 0.89750028
63.213634 20.28364 0.26766276
64.688576 20.725239 0.33079454
-16.172066 23.196835 1.9076704
-14.478282 22.562551 1.8388727
-13.089325 22.85882 1.6069334
-11.251373 22.960379 1.3482628
-9.0556145 22.664873 0.64848876
-7.3065419 23.386353 0.407913
-4.6626415 23.04213 0.52976501
-2.9179361 22.854906 0.29880521
-1.3304195 22.909159 0.28238788
1.8267238 23.629858 0.76055306
3.2849641 22.948997 0.30679676
4.0831575 22.159704 0.28811616
7.7076254 23.10376 0.72810453
8.8343296 23.013336 0.61839616
11.117579 23.031965 0.77229887
12.910824 23.145611 0.51806086
14.095823 23.975866 0.41354552
-14.656631 24.860577 1.771288
-13.08947 24.712675 1.783694
-11.001391 24.824907 1.549268
-8.9008169 24.982506 0.75215298
