# .PCD v0.7 - Point Cloud Data file format
VERSION 0.7
FIELDS x y z
SIZE 4 4 4
TYPE F F F
COUNT 1 1 1
WIDTH 1510
HEIGHT 1
VIEWPOINT 0 0 0 1 0 0 0
POINTS 1510
DATA ascii
52.560738 -89.534111 -5.6672425
-12.349943 -84.331505 -3.8055542
-10.281461 -84.622978 -5.0056176
-7.2138734 -85.44442 -4.3621264
-4.5505729 -85.470535 -4.1212435
-1.5840174 -85.9105 -4.1499295
1.1553119 -86.579674 -3.988452
5.0304594 -86.704826 -3.504178
-18.491653 -81.252258 -3.2458706
-16.416094 -82.047394 -3.974726
-13.345515 -82.548355 -4.7199454
-10.55765 -82.633255 -4.689754
-7.5473385 -82.915123 -4.5015411
-5.6112385 -83.296944 -4.6185102
20.029768 -81.920326 -3.0510306
21.671158 -81.433014 -3.0675809
-22.202787 -78.744942 -4.4130259
-18.741056 -78.828484 -4.708488
-16.376455 -79.815125 -4.9673996
-13.158367 -79.379875 -4.7505312
-10.856686 -80.039352 -5.2225137
22.851425 -79.785606 -3.252399
24.510681 -79.182541 -3.2863123
-25.272533 -75.247002 -4.5779419
-21.997913 -76.565437 -4.5614414
-19.682549 -76.478989 -5.1915379
-16.187805 -76.358231 -4.2182732
-14.118328 -76.945557 -5.0325999
23.637667 -77.606354 -3.341532
24.658686 -77.017311 -3.293221
-27.781963 -73.83503 -3.446465
-25.226353 -74.244408 -4.3928952
-22.29929 -73.462151 -4.8189964
-20.101578 -73.433044 -5.1698184
-16.787926 -73.912918 -4.7254734
-28.582479 -70.529312 -4.4079523
-25.477551 -70.087418 -4.8051357
-23.02326 -70.958855 -5.1724496
-19.69467 -70.571121 -4.5725126
-34.778206 -66.194145 -5.2844348
-30.311651 -66.098709 -3.5313613
-27.989246 -67.137764 -4.9873915
-26.60704 -68.118515 -5.1450081
-22.276421 -67.312538 -4.3737617
-20.628473 -68.456551 -5.0622463
-36.092686 -63.447735 -4.6948433
-34.432693 -64.863136 -4.7138824
-31.277477 -64.700729 -4.6486688
-29.380739 -65.331184 -4.8005481
-22.770777 -65.609879 -4.51054
-35.688869 -62.485058 -4.4086723
-28.420277 -62.599205 -4.7986941
-39.562092 -57.657459 -4.7249579
-38.34734 -57.908413 -4.8552504
-32.014824 -58.973949 -5.9686446
-39.748825 -56.444496 -4.4024777
-38.456543 -56.728317 -4.5291944
-35.841862 -54.014984 -4.9294963
-38.075489 -52.020447 -4.6939907
-35.036495 -52.304775 -5.1145716
-37.103359 -49.444626 -4.9621968
-35.224312 -49.471302 -4.8310161
-37.345226 -46.436798 -4.565887
-35.182396 -45.195034 -4.2233467
-29.612579 -45.059559 -4.7803998
-40.304192 -42.264397 -3.9414849
-36.764439 -43.655148 -4.1345792
-35.158123 -43.762974 -4.5351601
-32.230598 -42.836029 -4.8992605
-29.464273 -44.063042 -5.4724531
-24.031567 -42.37698 -5.0332804
-23.411564 -42.184212 -4.9083252
-40.511829 -41.456867 -3.9305248
-37.295265 -40.668922 -3.9828732
-35.154419 -40.748486 -4.2152224
-31.116219 -40.005943 -4.8760443
-28.407909 -40.181427 -5.0491333
-25.459658 -39.897556 -4.7782421
-22.816164 -39.94228 -4.6995616
-20.795425 -40.230774 -4.7159529
-42.944897 -37.491367 -4.0935273
-40.709053 -36.964962 -3.2016423
-37.057758 -37.335403 -3.4691648
-34.561291 -37.450817 -4.1423378
-31.802702 -37.754742 -4.4841175
-28.478647 -37.210999 -4.7038035
-25.645573 -37.348698 -4.6364188
-23.171715 -38.43071 -4.5510664
-20.139786 -37.041592 -4.6050668
-42.914555 -35.526173 -4.3080029
-40.424671 -34.10046 -3.7103486
-36.741371 -35.227436 -3.4701951
-35.237877 -34.972523 -3.3913546
-31.108204 -34.507881 -4.2153645
-28.149733 -34.32349 -4.5654731
-25.985653 -34.121422 -4.4837279
-43.154026 -31.407551 -4.5122399
-40.245441 -31.812466 -3.6043251
-36.718033 -31.292233 -3.2470748
-33.565128 -31.548615 -3.6601925
-31.046482 -31.532085 -3.8223767
-28.511917 -31.578695 -4.5068507
-25.806528 -31.17214 -4.5738897
-21.649418 -31.557358 -4.3671184
-20.190397 -31.705387 -4.1505289
-43.798767 -29.495346 -4.336
-40.264587 -29.287472 -3.552547
-36.811806 -29.995667 -3.621516
-33.688805 -29.153337 -3.5367877
-31.056175 -28.670229 -3.6945693
-28.761559 -28.340374 -4.3516932
-25.214308 -28.149559 -4.3681483
-22.433411 -28.099272 -4.3899908
-20.022495 -27.542484 -4.2346334
-33.121983 -26.92144 -3.2431989
-30.839861 -25.922441 -3.5907884
-28.808876 -25.611181 -4.0726094
-25.930567 -24.899612 -4.2520561
-22.644865 -25.961601 -4.6128874
-20.020866 -26.493111 -3.982255
-46.227398 -22.817419 -3.1534336
-44.543144 -21.45977 -3.8234689
-33.215237 -23.258141 -3.5506599
-30.677914 -22.862272 -3.9108877
-28.322294 -22.59466 -3.857275
-25.633158 -22.47052 -4.1614594
-23.597887 -22.226913 -4.6889753
-47.202534 -18.373388 -3.1908824
-44.89085 -20.750648 -3.6059127
-27.971912 -20.027617 -3.5476952
-25.934608 -19.301603 -3.8793664
-23.740713 -18.44507 -4.2825851
-46.935631 -17.713469 -3.1221204
-30.3417 -16.066711 -4.4237533
-28.495792 -16.774382 -3.9016993
-24.907038 -16.782036 -3.6706567
-23.136425 -16.161457 -3.7855611
-20.686153 -15.293646 -3.9194579
-31.320282 -13.09272 -3.2834308
-24.581364 -14.437808 -3.4409413
-21.901543 -13.750989 -3.4673707
-20.065248 -13.118958 -3.553669
-16.982727 -13.0076 -3.6302638
-25.580315 -11.722699 -3.4345992
-22.084816 -11.139389 -3.745827
-19.181656 -11.203268 -3.3790264
-16.387558 -10.242724 -3.4064889
-14.369011 -10.735492 -3.6070247
-11.410431 -9.4454203 -3.4674594
-6.8857512 -9.0064631 -3.2726727
-18.57324 -7.947844 -3.085382
-15.839468 -8.6993103 -3.3681836
-13.616271 -7.8123055 -3.2776537
-10.544626 -8.0910082 -3.2813282
-7.6427317 -7.7963829 -3.2493844
-4.4883518 -7.0575862 -3.2580979
-1.326282 -6.5387106 -3.2395895
0.83181936 -6.1790056 -3.1978724
5.118948 -7.2363296 -3.1168151
11.693385 -6.2994823 -3.0969739
13.797143 -6.8246322 -3.0503993
-11.033298 -5.5731301 -3.7011173
-8.9521599 -5.9480648 -3.2157683
-3.806057 -5.6288218 -3.0889933
-1.2760372 -5.705575 -3.1653078
1.7642027 -4.9062014 -3.1681886
4.360816 -3.6850331 -3.2173293
6.8787632 -3.7553346 -3.291467
11.138713 -5.2375169 -3.1751564
12.97828 -5.3860631 -3.3586068
-0.79288429 -2.5834777 -4.8546467
1.4585781 -2.0135491 -4.3391361
4.7780762 -2.3309002 -3.408041
7.5540442 -2.279597 -3.4754448
10.420927 -1.3166821 -3.3615749
13.383284 -1.2505205 -3.6573391
16.317894 -1.6123433 -4.2014413
19.246349 -0.68765426 -4.0308852
21.737837 -0.31492579 -4.2749653
-0.95937413 2.4364984 -3.2668374
5.3647766 0.22834174 -5.3822403
7.2183919 0.51085854 -4.7219896
11.155281 0.22188477 -3.6043794
13.367783 0.65863526 -3.6071286
16.447824 1.375415 -3.5383399
19.409897 2.0645742 -3.4558699
22.358093 1.4186397 -3.758038
25.487814 0.73319232 -4.1657834
28.421873 1.2537711 -3.9988644
30.130817 1.8399618 -4.2204618
20.859085 3.178071 -3.3957708
21.776018 3.5503802 -3.3305981
26.134203 3.5765004 -4.1173968
28.038294 4.2425017 -3.8418064
32.59259 4.9051447 -3.9383545
33.668156 5.1703982 -3.9172843
38.748764 6.6971717 -3.4489961
40.738716 7.4534125 -3.4871285
43.353817 8.4538269 -3.2003572
45.121017 8.9694214 -3.6973681
44.787945 9.0593376 -3.2828736
45.647232 9.2283306 -3.446058
64.438934 -114.0816 -0.2151414
62.268929 -112.54585 -0.57228369
64.066971 -113.56351 -0.38601011
57.352043 -109.70693 -0.54508847
15.739345 -105.07764 -0.41992748
48.94128 -106.25714 -0.19851971
2.6785903 -102.78822 -0.006090045
14.645668 -104.64101 -0.17814329
15.443165 -103.11942 -0.033260226
18.684217 -102.31606 -0.17403905
25.351696 -103.22731 -0.18562979
29.70204 -102.61322 -0.5167169
31.135704 -103.03545 -0.56186646
34.526344 -104.2115 -0.40003914
41.306038 -103.868 -0.18641867
43.316994 -102.52785 -0.60002035
46.968109 -103.06482 -0.33336279
48.164204 -103.48283 -0.15305883
-0.24198423 -99.702003 -0.29307279
1.1166586 -99.240074 -0.39565229
4.5463533 -100.47588 -0.23516957
11.372895 -101.53064 -0.161116
12.80777 -100.15269 -0.27005783
16.247932 -100.37983 -0.30666769
18.962051 -100.58795 -0.31682634
26.038197 -100.09645 -0.43747771
27.8146 -100.22697 -0.40995261
30.611261 -100.18001 -0.58316642
34.202202 -99.225197 -0.46575588
40.765491 -100.52656 -0.61232048
43.678539 -101.71848 -0.54151475
-16.66361 -96.878502 -0.25986955
-14.037584 -96.452278 -0.34304273
-0.11792525 -98.855164 -0.23548719
1.4526302 -97.87925 -0.34942427
4.450408 -96.851868 -0.35718828
7.2486749 -97.004318 -0.31779933
10.080539 -96.843689 -0.41152179
14.053633 -96.861389 -0.46489361
16.386927 -96.989792 -0.62678194
19.048876 -97.163315 -0.82359964
22.459568 -96.225807 -0.050186992
26.578342 -96.94838 -0.47110415
28.747465 -97.961746 -0.23781399
30.44486 -98.237587 -0.25785995
34.227531 -98.502434 -0.39662164
38.566059 -98.557259 -0.53251261
40.062332 -98.287346 -0.65673673
43.313831 -98.244949 -0.60276186
-15.481526 -94.477455 -0.42806518
-14.351349 -95.423393 -0.23007445
-10.272154 -93.084488 -0.07757318
-4.9577274 -93.097855 -0.32448924
-1.4760948 -93.612175 -1.1132301
0.96053028 -95.918175 -0.12460363
4.4902606 -94.482727 -0.64393646
7.1736393 -93.801903 -1.0075467
10.487546 -94.202972 -0.75905693
13.274722 -93.902252 -0.72679621
16.60025 -94.504578 -0.84501946
19.501375 -94.312569 -0.86961454
22.338604 -93.646568 -0.66620582
25.878553 -94.164673 -0.55775988
27.94985 -93.930061 -0.57334262
31.190943 -94.09623 -0.73024094
34.497581 -94.85498 -0.81408703
36.82296 -95.45047 -1.114681
-11.232399 -92.293518 -0.16062064
-7.1110921 -90.874062 -1.0996904
-5.163456 -90.841927 -1.553944
-1.5666808 -90.997704 -0.96673328
1.8665454 -90.543877 -0.81062812
4.6413827 -91.040298 -1.0088676
7.5025949 -91.295158 -1.4853854
10.712596 -91.271584 -1.6248096
13.550738 -91.108498 -1.5712066
16.628944 -91.191391 -1.5277604
19.235746 -90.977654 -1.491196
22.698858 -91.041283 -1.4159757
25.203075 -91.261887 -1.3331627
28.68251 -91.068687 -1.533507
31.545433 -91.117378 -1.4541439
34.458958 -90.768845 -1.2673116
37.387905 -90.764336 -1.2249956
40.776909 -90.870102 -1.3626512
43.415382 -90.620178 -1.1285541
46.658833 -90.66964 -1.1329163
49.491695 -91.24247 -1.1219089
51.343647 -91.629211 -1.3117002
-6.3181844 -88.184525 -1.5701755
-3.9616616 -88.19001 -1.8362776
-1.5815725 -87.945572 -1.4719162
1.7747033 -88.643784 -1.7586044
4.2164712 -88.959282 -2.0111623
7.4168286 -89.139908 -2.0684164
10.585394 -89.218872 -2.324425
13.551563 -89.434044 -2.2571752
16.482458 -89.532532 -2.0493474
19.473162 -89.559425 -1.8826183
22.453657 -89.478523 -1.6292585
25.584391 -89.280151 -1.5452636
28.593012 -89.098824 -1.3451513
31.527201 -89.237801 -1.2666985
34.397144 -89.308243 -1.3404157
37.118382 -89.49807 -1.2276911
40.257854 -89.654243 -1.2007167
43.101982 -89.894592 -1.4171506
46.550003 -89.046783 -1.8027462
49.281216 -89.322365 -1.5740428
-24.124115 -84.830849 -0.64239252
-23.707085 -84.747169 -0.83640969
-18.748104 -84.393333 -1.5379763
-17.96257 -84.237961 -2.0286498
-12.871688 -84.928146 -1.7594221
-10.640394 -84.851036 -1.8997459
-6.9648857 -85.287888 -1.8637856
-4.6149163 -85.518059 -1.7970471
-1.3577293 -85.781494 -1.2296605
0.55179989 -85.496147 -0.86988759
19.128632 -84.073036 -2.4237161
-21.760887 -83.586823 -1.4278554
-18.980139 -82.661346 -2.0649991
-16.519466 -82.650116 -2.6128898
-13.086614 -82.996864 -2.3858824
-11.281611 -83.725166 -2.2580471
-7.3021774 -83.809303 -1.8154421
-4.856226 -83.880287 -1.8981991
-2.0353839 -83.892662 -0.39510906
17.484001 -82.3284 -1.901894
19.88409 -82.253197 -2.6344752
22.018808 -81.74295 -2.6159089
-18.320593 -79.043655 -2.6866231
-17.014055 -79.720474 -2.3452811
20.058182 -80.858391 -2.8290448
22.866856 -80.097389 -2.8069386
24.472353 -78.75827 -2.7716756
-39.521851 -76.625519 -0.41266498
-38.181652 -76.259224 -1.5762361
-27.346184 -75.465225 -1.5241404
-25.792797 -75.535156 -2.0827727
-23.633846 -76.949806 -1.7499436
-19.653471 -76.385887 -2.5335782
24.941893 -77.365341 -2.8399851
-38.696449 -74.894791 -0.65367258
-30.209864 -73.135941 -2.3876319
-29.38068 -73.519104 -2.2541099
-25.557199 -74.154533 -2.0141463
-22.005566 -72.647202 -1.9677217
-20.847666 -72.369385 -1.5582227
-27.172495 -69.945763 -1.7818201
-25.581894 -70.974251 -2.039593
-22.174637 -70.871094 -1.4942962
-20.617113 -70.768196 -1.8369011
-30.031992 -66.069778 -2.8091464
-27.891859 -67.911797 -2.4003983
-25.456694 -67.718674 -1.6942482
-22.895399 -67.564301 -1.4547085
-30.369137 -65.693886 -2.8331351
-23.620365 -65.985657 -0.25336492
44.245461 -61.436447 -0.5835948
45.836109 -60.732433 -1.2701209
-39.323486 -57.540512 -2.5694389
44.585209 -58.290646 -1.2288462
45.909523 -58.618656 -1.4017569
-39.601231 -56.506519 -2.6065841
44.420498 -55.619537 -1.5692647
45.592522 -55.739117 -1.5956951
-37.121178 -51.336815 -1.7543583
44.457623 -53.179588 -1.6937741
45.808273 -53.456909 -1.6185013
-39.049797 -49.765785 -1.5660658
-37.216526 -50.621658 -1.6424839
-38.35561 -47.108521 -2.6019933
-39.507351 -42.586849 -2.6040738
-36.56723 -43.743893 -2.3353086
-35.251755 -43.972553 -2.256156
-42.067707 -39.510094 -2.4849148
-40.815163 -40.442787 -2.6029391
-36.116993 -39.363197 -2.3491182
-34.707783 -39.547421 -1.8569456
-31.333168 -39.788746 -2.5480545
-24.240026 -39.096664 -2.0619586
-22.964663 -39.68137 -2.5692997
37.621784 -39.191284 -0.26833808
-42.787186 -37.061497 -1.8213793
-40.914162 -37.167282 -2.4527493
-34.73843 -37.137253 -2.275944
-32.338821 -37.622894 -1.5822879
-24.221092 -38.710106 -2.4945395
-23.556776 -38.805447 -2.3226769
32.924347 -36.058064 -0.31069803
34.795601 -36.614349 -0.65872794
37.353916 -37.121567 -0.35536757
39.343639 -38.130577 -0.1752145
-42.315582 -34.04731 -1.5355141
-40.798157 -34.000072 -2.1148901
-36.87199 -35.220791 -1.9724264
-35.698017 -35.458897 -2.0264497
-31.25565 -34.403202 -2.4204652
-25.769335 -33.934097 -2.7747455
29.711145 -33.164188 -1.8318251
31.978428 -33.808674 -1.1685886
34.307476 -34.76265 -0.68825728
36.550854 -35.456242 -0.44236612
-42.796268 -31.57375 -1.3407959
-40.773399 -31.868309 -2.0686593
-36.700478 -30.872805 -1.7313421
-35.13509 -31.389915 -1.8951228
-30.926302 -31.360094 -2.0226014
-28.360893 -31.767059 -2.4333825
-25.859938 -30.989637 -2.2480254
-21.49964 -31.734461 -2.2131629
-20.076702 -31.658962 -2.3556995
29.352324 -31.244238 -1.684018
31.182476 -31.992197 -1.3366246
33.342175 -32.750549 -0.7142669
-43.768188 -28.761354 -1.1276529
-40.163963 -29.016642 -1.7185978
-38.103157 -29.407171 -1.7851635
-33.999908 -29.206739 -2.2307198
-30.818132 -28.520887 -2.4741757
-29.999825 -27.592747 -2.7556636
-25.626638 -28.122351 -2.5281193
-19.874235 -27.622339 -2.4591086
26.407154 -27.59963 -1.7417644
28.336025 -28.695107 -1.6206938
30.439077 -29.745213 -1.1149631
-45.467377 -24.832293 -0.49506757
-44.612839 -26.324162 -0.74653673
-41.073536 -26.091503 -0.10099721
-33.486996 -24.487907 -2.3689513
-30.873055 -25.186361 -2.6126063
-29.81991 -25.298161 -2.8598235
-25.019648 -25.802801 -2.4673822
-21.24122 -26.435436 -2.5998132
-20.055994 -26.547716 -2.3279221
26.133236 -25.837904 -1.739925
27.372862 -26.309231 -1.7060659
-48.071754 -21.492977 -1.1670614
-46.115353 -21.985207 -0.76982385
-44.278782 -21.82856 -1.018616
-39.741192 -21.121395 -0.02483058
-33.955112 -22.958637 -0.94439095
-30.949352 -22.882359 -2.4625607
-29.108461 -22.292429 -2.5873313
23.48946 -21.232384 -1.5389496
-48.034653 -19.960167 -0.083447635
-46.093575 -19.442698 -0.65681869
-43.668194 -20.055607 -1.5792172
-40.502289 -20.381992 -1.1567611
-38.0812 -19.057693 -1.786237
-33.93047 -18.718964 -1.6471658
-30.610962 -18.349287 -1.7259147
-28.075518 -19.360132 -2.0091674
-26.627478 -18.678036 -2.3502288
20.457336 -18.675045 -2.4640548
21.900539 -19.206858 -2.2870731
-45.637341 -17.149374 -0.71831435
-44.112442 -16.570332 -0.41466406
-41.733318 -15.146044 -0.18764882
-37.426502 -17.019588 -1.8720061
-34.531975 -16.412968 -1.0875076
-30.906065 -17.283556 -1.7559069
-28.201033 -17.106962 -2.1095321
-25.521437 -16.143955 -2.4462647
-23.466972 -15.470236 -2.0897911
-20.959854 -15.148022 -2.8683825
17.801344 -15.373003 -2.642915
19.486595 -16.48735 -2.5873675
21.579584 -17.700483 -1.858
-48.987427 -13.172647 -0.97884274
-47.042538 -13.578962 -0.89226568
-42.43111 -14.818995 -0.30953592
-41.569359 -14.611004 -0.24701485
-37.080627 -13.571877 -0.69332492
-34.955704 -13.495194 -0.9645052
-31.200539 -12.636109 -1.4326816
-29.558756 -12.749117 -1.616039
-24.558365 -13.191053 -1.2984718
-22.418924 -12.881555 -1.8736875
-20.321474 -12.766654 -2.3535786
-16.688015 -12.311865 -1.3423347
17.239788 -13.725985 -2.800642
18.606703 -14.548757 -2.8073983
-40.276157 -11.083338 -0.25010651
-34.187347 -11.259112 -1.0344759
-31.271959 -11.444293 -1.1393175
-28.601074 -10.412414 -1.0054728
-25.01833 -11.237287 -0.65791637
-22.033815 -11.049791 -1.6821696
-19.510895 -10.823749 -2.255007
-16.72006 -9.7966614 -2.5110447
-13.683186 -9.799242 -2.4286945
-11.777761 -9.3087006 -2.5255535
14.344822 -9.3711014 -2.6634307
15.0799 -9.6471043 -2.0596547
-34.845005 -7.5318532 -0.097126722
-30.442907 -8.8570986 -0.56898326
-28.703794 -7.6092501 -0.49494019
-24.731182 -7.9402719 -0.97847265
-21.682348 -7.9533319 -1.3874463
-18.972342 -7.5140629 -0.82966453
-16.366295 -7.6097875 -1.4135484
-14.043445 -7.225131 -1.6508694
-10.430545 -6.7095914 -1.300343
-7.708415 -6.6277199 -1.8548254
-4.8846316 -6.668921 -2.6470208
-1.6707911 -6.3404679 -2.7789845
1.1921316 -6.5325999 -2.6135132
4.0647125 -6.683743 -2.3937843
6.5416269 -6.0443015 -2.9076941
14.390283 -7.8025384 -2.8327875
15.061475 -7.4305038 -2.7258403
-30.422787 -5.7634692 -0.27152294
-28.915731 -5.6455722 -0.30851483
-25.460426 -5.2433929 -0.36863506
-18.225082 -5.8188143 -0.84695929
-16.118484 -4.7329612 -0.54135668
-13.394547 -5.1772261 -0.82320535
-10.223778 -5.3903489 -0.90949011
-7.9211602 -4.4629745 -0.87422043
-4.4297214 -4.5438566 -1.649428
-1.4973813 -4.2081556 -1.8932388
1.5609385 -3.9408743 -2.2971971
4.1991916 -3.8518615 -2.1790586
6.9678779 -3.5512781 -2.7281032
10.246598 -4.1328754 -2.8443491
12.578591 -5.32095 -2.9638796
-15.466918 -2.3569877 -0.30144089
-14.055186 -2.1155429 -0.49215379
-10.571132 -1.4791374 -0.53093177
-7.1176066 -1.5739396 -0.43936044
-4.4714103 -1.4755263 -0.59639376
-1.708792 -1.4961847 -0.84428215
1.8750606 -1.891057 -1.4306855
4.5624661 -1.5890113 -1.696189
7.4844685 -1.5619087 -1.9537321
10.306025 -0.96600401 -2.0410984
13.34103 -1.0225196 -2.457859
16.244064 -0.71800923 -2.6128881
18.687986 -0.25463527 -2.6698186
-15.604175 0.031211689 -0.018161684
-10.588747 2.3698454 -0.18580732
-6.4634399 1.1085838 -0.26458916
-4.3776679 1.3964437 -0.44960946
-1.8678668 1.687281 -0.61327815
1.8330342 1.5725943 -0.68121886
4.2383451 1.4438885 -0.89560801
7.4362431 0.86501551 -0.96327955
11.096421 0.29338288 -1.3675219
13.519935 0.78562045 -1.4867444
16.49267 1.4704695 -1.6673832
19.317884 1.9410114 -1.7396427
21.708035 2.176101 -2.0994046
24.523729 2.8527114 -2.4233329
-25.573158 5.6264896 -0.044208638
-21.07012 5.8796802 -0.1132324
-20.109991 5.9999847 -0.020772845
-16.43849 5.0901523 -0.42506853
-13.298896 3.9161112 -0.18135923
-10.594123 4.2936859 -0.27208272
-7.3226652 4.6543341 -0.1511205
-4.7714772 5.1201577 -0.093425997
-1.2397749 3.4534273 -0.41462362
1.6755098 3.8576992 -0.42329985
4.4707937 4.4678407 -0.4177143
7.2775249 4.3503618 -0.58325583
10.2604 4.8281264 -0.53879315
13.20013 4.8406315 -0.32621986
16.339701 4.5152783 -0.28777269
20.125477 3.6326263 -0.99102932
22.370607 3.8036506 -1.1934836
25.471628 4.5920606 -1.3989793
28.405277 5.3013873 -1.5177417
31.211222 5.6010489 -1.7197213
33.441307 5.6793971 -2.0475602
-21.502016 6.9644532 -0.19512568
-19.582491 7.7350616 -0.13192777
-17.305355 6.9745755 -0.49820021
-12.987239 7.6585784 -0.22539133
-10.045866 8.2709274 -0.35863072
-7.2132411 7.0997696 -0.24006635
-3.8705473 7.1889215 -0.059541829
-1.4568644 7.4488544 -0.08350639
1.4778278 7.9337025 -0.13342662
4.2903671 7.3240085 -0.12461159
7.8508191 6.449543 -0.21115653
10.351023 6.3072038 -0.28585771
13.601018 6.4090796 -0.18955797
15.998223 6.6289062 -0.18650034
19.490561 6.6513414 -0.10633781
22.178019 7.1809387 -0.18403502
25.799969 6.3528838 -0.24674985
29.125607 6.5755749 -0.6870876
31.580153 6.6580062 -1.1459016
34.46154 7.5377483 -1.1571912
37.182655 7.9775882 -1.3096087
40.472916 8.570859 -1.6324675
43.117481 8.6243792 -2.505425
-15.206299 10.99408 -0.25635085
-13.93073 10.870963 -0.41669992
-11.367107 10.855115 -0.16521527
-6.4341826 10.395589 -0.046324443
-4.4647093 10.02213 -0.1071585
-1.0648326 9.9770403 -0.065814368
1.5240529 10.207534 -0.12531148
4.3846669 10.296483 -0.10783175
6.0882392 11.252653 -0.27116895
32.370899 11.290548 -0.25465268
35.486649 9.4807348 -0.45960096
37.800301 9.6038923 -1.0251533
40.409248 10.322097 -1.0121988
43.430611 10.599666 -1.11998
45.824726 10.375908 -1.474377
49.787823 11.22585 -1.9668515
51.573475 11.73482 -2.4948831
-15.602364 12.168811 -0.11351682
-14.359138 13.064059 -0.20220062
-9.8123646 13.844318 -0.30739388
-7.0290136 13.444372 -0.1068646
-5.0941076 14.125731 -0.05428753
-1.1781344 13.041096 -0.090121977
1.8638588 13.196511 -0.11127469
4.6482086 12.86772 -0.19140036
7.068233 13.355436 -0.2449442
32.217026 12.27895 -0.25269273
38.378174 14.185216 -0.22703077
41.135849 12.660849 -0.46579483
43.756294 12.555031 -0.70435292
46.082146 13.218386 -0.63046443
49.884876 13.604838 -1.0992236
52.153301 13.49127 -1.4227391
55.305363 13.159293 -1.8237704
58.420715 14.499419 -1.1580393
-11.583311 17.080372 -0.045135178
-6.6651793 16.442879 -0.10360339
-5.2764568 16.230495 -0.1426385
-1.4433815 17.227116 -0.25157154
1.8465648 16.323721 -0.11466462
4.5452037 16.461712 -0.15377855
8.1752148 16.560452 -0.15316442
9.1146173 16.408218 -0.20522332
47.282982 15.194517 -0.029500287
50.462524 15.038139 -0.034180462
52.69899 15.809265 -0.68356484
55.526669 16.332239 -0.98684102
58.181721 16.873308 -1.4814832
61.253891 15.691866 -1.089316
-10.043744 19.005751 -0.12103121
-8.9542656 19.985849 -0.18136369
-4.8203125 19.474947 -0.10813421
-2.6198869 19.084141 -0.1133209
5.9374418 20.259754 -0.0070332587
7.3755412 19.155853 -0.1755947
9.0607805 19.750364 -0.20284608
52.975361 18.178255 -0.032944895
56.863808 18.498344 -0.062514305
59.039417 19.172075 -0.30424583
61.146172 19.498686 -0.2404906
64.248695 19.447147 -0.81068486
66.123169 19.297787 -0.67744064
-9.0223541 23.57342 -0.028807178
-8.854393 23.3325 -0.016499843
-4.9491134 21.240269 -0.13971278
-1.5295036 22.393225 -0.15868659
4.0684538 22.729174 -0.30050397
7.665278 22.196648 -0.18872543
9.2947521 21.173502 -0.13616686
12.959312 23.186863 -0.16449307
-8.8349733 24.183531 -0.0055510625
8.7634735 25.106833 -0.35245684
10.26755 25.675497 -0.31434274
5.3318548 29.566448 -0.071406431
2.9797945 30.073917 -0.12329105
3.4193828 30.773354 -0.12786433
50.532883 -127.18607 1.7145789
51.945789 -126.46593 1.7763497
53.0616 -125.55811 1.9707632
55.146278 -124.36346 2.0554218
53.855907 -122.70277 0.39982182
55.587727 -122.56013 0.94744271
57.083504 -122.33574 1.539845
53.192596 -118.20924 2.2107713
35.615341 -111.68974 2.2887144
37.869442 -111.63959 1.857691
40.568607 -113.15365 2.2132778
50.621155 -113.15452 1.180227
51.440338 -113.31579 2.3154869
55.376396 -113.47885 1.9321477
58.631947 -112.05023 1.9438956
61.734707 -112.31806 2.1705289
63.042763 -112.81738 2.2195163
13.560246 -108.68627 1.3767138
21.913963 -109.4883 2.700604
29.294144 -108.67024 2.0479224
31.294756 -108.78873 2.1933351
35.018524 -110.1086 1.7063128
37.222267 -110.45929 1.2095281
39.788734 -109.6367 1.9720554
43.958935 -108.55724 0.48493725
50.649956 -108.84564 1.7352359
51.43512 -108.69997 1.8388635
58.562469 -109.57543 1.0061672
1.1542072 -105.07583 1.5981337
3.6513076 -105.30019 2.8312702
9.8608656 -105.94051 1.7648805
14.317945 -106.52108 1.3352561
15.941585 -105.7555 1.8917594
20.818611 -105.17772 2.2718575
22.289537 -105.48508 2.3353179
25.790298 -106.40027 2.469945
28.741461 -106.68153 2.2473018
31.443184 -106.30457 1.780795
33.702816 -106.02118 1.4984478
37.923817 -107.2783 1.0108669
40.835442 -106.46588 0.69916087
43.29417 -105.84399 1.618714
47.679943 -107.19682 0.51364893
48.925652 -106.43641 1.4151976
-1.3430021 -103.23898 0.95213234
1.829812 -103.33752 1.1774408
4.2033892 -103.14712 1.959946
8.3127832 -103.5764 2.435853
10.358072 -102.92747 1.9026377
14.001112 -103.26144 0.98674321
16.478779 -104.1573 1.3212708
19.021469 -102.73432 1.8867539
22.152945 -103.37022 2.4585531
25.265066 -102.8259 1.1295153
28.084644 -103.55424 1.9333686
31.812057 -103.51825 0.89510471
33.952202 -103.61467 0.5262531
41.282387 -103.7043 1.0573249
43.617344 -104.17506 0.80449414
45.220791 -103.94525 0.13828188
-3.2620308 -101.74987 2.0131619
-0.72532731 -100.21497 1.6265248
1.3030531 -99.627815 1.4986882
4.5965619 -100.57168 1.4206319
8.0955086 -99.825539 1.8490642
10.682839 -100.3317 1.6468135
13.553504 -100.08843 1.5407766
16.216372 -99.95166 1.685845
19.327778 -100.22969 1.6964288
21.997391 -100.83531 2.2947426
25.562574 -101.03214 0.8399359
28.304979 -100.22535 1.2452974
30.868792 -100.62847 0.53575593
40.330849 -100.53284 0.15642798
-16.49641 -96.934753 1.7288146
-13.962246 -96.54422 1.5079755
-7.3709683 -96.102417 2.9241264
-4.1241856 -96.456268 2.6957555
-0.75877768 -97.250862 2.1817367
1.7468573 -97.679573 1.6146268
4.3193793 -97.474907 1.6091462
7.4976363 -97.518272 1.5328313
10.592198 -97.007072 1.5393959
13.129762 -97.357857 1.7250848
16.561354 -98.000298 1.3619788
19.485077 -98.149902 1.7281219
21.899656 -97.298515 1.4702216
26.334799 -96.626022 0.10965153
28.426413 -97.662918 0.28141141
30.427979 -98.703125 0.019660771
-18.79479 -94.665367 1.4669739
-16.304262 -94.424187 1.3847636
-13.513707 -94.899246 1.2035564
-10.474817 -93.957436 1.7348149
-8.299614 -93.908302 2.2497129
-4.3899546 -93.933769 1.7026228
-1.7405413 -94.214798 1.7092986
1.9118036 -95.286522 1.6201811
3.9435205 -94.534706 1.4643669
7.723237 -94.857574 2.1649473
10.440912 -94.384293 1.4836701
13.22892 -93.839661 1.325446
16.465948 -94.185173 0.86340642
19.625887 -95.000832 0.63145512
22.146877 -94.03299 0.85852104
25.586851 -93.992836 0.71201551
28.265062 -94.316292 1.2912771
31.42815 -93.627594 0.98999536
33.549656 -95.00148 0.16537118
-13.10483 -92.239128 2.4515975
-10.338827 -92.081078 1.8979225
-8.4187298 -92.174789 1.9201045
-3.867696 -92.463989 1.1127269
-2.7088852 -92.141663 1.0782472
2.328203 -90.913315 0.58485174
4.3396983 -91.534668 0.83844614
6.7268906 -91.214012 0.41109568
10.70413 -92.4589 1.5435314
13.590609 -92.391876 0.66043812
16.314909 -92.31105 0.46077189
19.63636 -91.830818 0.31739631
23.015022 -91.60553 1.0718035
25.005867 -91.84269 0.99325371
28.76708 -92.00235 1.2059121
31.402096 -91.74575 1.2144752
34.439949 -90.963669 1.0900694
36.754642 -90.764732 1.1388445
41.329338 -91.260704 0.40974849
43.115608 -90.901169 1.1623313
47.653366 -91.383812 0.44115573
49.47205 -91.58844 0.41128182
51.936157 -91.694786 0.57024944
54.035686 -90.190727 0.65745693
-6.1954012 -89.987839 0.19781458
-3.7413309 -87.777473 0.32656953
-1.1816418 -88.116013 0.47522688
1.6620545 -88.88784 0.41398761
3.7695901 -89.337624 0.51293564
13.382122 -89.173248 0.22049531
19.327667 -87.463295 1.0213445
22.608263 -89.748024 0.94686276
25.915432 -88.17334 0.38687024
29.213039 -88.609123 0.50415212
31.468651 -88.799408 0.48665887
34.305408 -89.34787 0.48888281
37.788971 -89.295502 0.45248541
40.384499 -89.232895 0.24321553
43.335186 -89.742989 1.2356884
45.179153 -89.865936 1.3442302
-27.21748 -85.240143 0.53912079
-25.880219 -85.093224 1.2513733
-12.219613 -85.516624 0.68265152
-4.1034842 -85.13102 0.46641955
-1.1615552 -85.43129 0.46828309
0.35133311 -85.866013 0.53941715
-1.8108807 -83.933228 0.37189668
-23.271566 -67.135628 0.3549633
38.372559 -39.495937 0.8954941
39.27 -40.083366 1.0759404
-42.674713 -37.047741 0.79341668
-41.795544 -37.068985 1.8495764
35.400146 -36.503944 0.2860584
36.895515 -37.757851 0.59731704
-43.335884 -35.687801 0.77480733
-40.884987 -33.122635 0.45389611
34.434658 -35.629597 0.099656582
-42.707775 -31.513664 1.1758343
-40.547653 -31.545567 0.80024832
-36.587353 -30.850252 1.257273
-35.337193 -30.58341 1.4108498
-43.857761 -28.431616 0.37004656
-39.841908 -28.811398 1.0652881
-37.373138 -29.225258 1.5716189
-35.57859 -29.562344 1.8159201
-45.694038 -24.703344 0.5282982
-43.367603 -25.368225 1.5492983
-41.272556 -25.598145 2.0806236
-48.086479 -21.273937 0.63982642
-46.796532 -22.47364 0.73896098
-43.95602 -22.589151 1.1612949
-40.088146 -21.606426 1.6632401
-38.727463 -22.406401 0.97298098
-34.737942 -22.689646 0.18404758
-48.746876 -19.667149 1.2691646
-47.279552 -19.905029 1.232282
-44.143173 -19.099342 0.50491524
-40.477028 -20.669271 1.3228025
-37.642109 -18.678793 2.4182265
-33.729031 -18.572939 1.8397685
-32.647968 -18.36459 2.2476411
-27.84409 -18.714575 0.59672922
-50.051796 -17.474966 2.1146996
-46.260586 -16.433802 0.55692899
-43.518833 -15.738444 1.2180729
-40.581112 -16.854259 2.8994503
-36.545959 -15.27832 2.3992505
-34.496017 -16.274166 1.7709457
-32.395836 -17.083797 2.0286062
-28.460096 -17.416817 0.4834033
-45.498703 -14.081306 1.156106
-43.627476 -13.262717 1.2563502
-41.565426 -13.294733 1.5168695
-37.289021 -13.532334 1.3970716
-35.489414 -14.436055 1.95862
-30.984762 -12.759102 0.29492089
-29.012766 -12.786596 2.0790708
-24.687584 -12.446209 0.81856418
-23.40542 -12.400761 0.68338555
-42.896049 -11.447819 1.9113026
-40.616684 -11.344357 1.4030561
-37.019104 -10.826585 0.54451889
-34.026432 -10.677058 0.29506505
-31.538368 -10.652829 0.70164216
-27.918118 -10.304412 1.3775035
-25.028042 -10.749912 0.92467606
-23.47467 -10.904922 0.72942221
-20.013878 -9.3804741 0.42430282
-33.64156 -7.4683805 0.73912555
-30.74761 -7.1796665 1.7560766
-28.637926 -7.7058253 1.7384429
-25.372911 -7.7207685 1.2583858
-22.253986 -7.9124551 0.5275237
-18.722843 -7.379343 0.76274621
-16.987631 -6.8666325 0.92645735
-13.856179 -6.5692959 1.9272006
-9.596879 -6.514679 0.99232411
-8.5517406 -6.4467897 0.77051973
-33.470116 -4.3472776 1.5084065
-31.306921 -4.8698425 1.5997072
-29.190916 -5.8396001 0.50888258
-24.906618 -5.1859064 1.1720734
-23.164356 -4.9406219 1.0933471
-18.411339 -3.9337575 1.8609769
-16.683018 -4.4201107 1.0788921
-13.667011 -4.7102165 1.3494358
-10.267448 -5.1539664 1.0545508
-8.2741365 -4.4812722 1.0305817
-3.8679945 -3.7176762 0.58853567
-2.5726285 -3.6970146 0.82526988
1.1298215 -3.2671409 0.33700341
-25.187307 -2.6209359 2.1279838
-22.820065 -2.0250673 0.61117142
-18.214178 -1.7597172 0.87588829
-15.819502 -1.8557763 1.1705923
-14.549889 -2.1735828 1.1316553
-9.6569166 -1.6109674 1.2647488
-7.381896 -1.3862616 1.077159
-5.1535888 -1.0905211 0.49334717
-1.153278 -0.83090305 0.45117459
0.52096474 -0.66311449 0.23183267
5.6021595 -1.4553267 0.22067571
6.697001 -1.1299371 0.27841675
10.694173 -0.71416539 0.22783816
12.163703 -0.18327117 0.29991412
-36.118721 1.0798588 2.72089
-35.420753 1.4122351 2.7794518
-31.865973 1.2517086 2.8396099
-26.165924 2.8398597 0.81199419
-18.121597 0.41537988 1.4359094
-16.940521 0.34160322 1.0142666
-12.893856 0.87857819 0.38055003
-10.346812 2.2368996 0.23630783
-6.791976 0.94470662 1.0333246
-4.8908343 1.2997797 0.76919609
-1.4866341 1.6170949 0.79327029
1.0319728 0.89088422 0.45504281
3.4327819 1.0333234 0.4505395
8.1080246 0.9002831 0.14429125
11.430961 1.5726815 0.61556166
13.786272 1.6237631 0.49426097
16.254757 2.010097 0.29440641
19.27055 2.5398698 0.25687355
-29.546732 5.7778811 1.7962844
-25.278666 4.9397025 1.2486813
-21.97298 5.3801723 0.84389693
-20.073473 5.6985106 1.6698475
-16.85631 5.3231773 0.72191978
-13.354664 4.8068666 0.47542247
-10.426298 4.4118371 0.27934873
-7.5320516 4.5820212 0.4049699
-4.7454944 4.3093295 0.81512606
-1.5085651 3.691205 0.95603526
1.759196 4.0270557 0.28106323
5.1872897 5.3031874 0.90771544
6.7946348 5.1267781 0.55353075
10.386024 5.5004454 0.47754818
13.139366 5.2007942 0.5991748
16.31761 4.8624306 0.63414717
19.853594 4.9117751 0.41774786
22.582859 4.956254 0.4715718
25.163237 5.2289524 0.68137056
28.359144 5.3960042 0.360865
31.538601 5.6256108 0.32333025
-30.443304 7.5247841 2.2706504
-28.159206 7.3941741 1.8782343
-25.13641 7.7851372 1.9038215
-22.681152 7.9305811 1.5963109
-19.270103 7.086123 1.3816105
-16.318619 7.5324006 0.70149988
-13.209654 7.5369768 0.47628871
-10.321874 7.3409686 0.2739214
-7.4565945 7.5115509 0.18672171
-4.8979754 7.406148 0.089133479
-1.6029247 7.5460582 0.51507342
1.4363561 7.6492243 0.10801292
4.7476964 6.6766834 1.3895962
7.042757 6.54601 1.3149357
10.561004 6.4715023 0.56813616
13.965448 6.9913473 0.79302204
15.789146 7.0296059 0.9808073
19.693569 7.1216178 0.41072872
22.067596 7.1056089 0.59206986
26.031754 7.1957984 0.18011776
28.762568 6.9948201 0.61742353
31.543224 7.2635827 0.75917488
34.298939 8.3309822 0.889521
36.662823 8.5617676 0.53862607
-28.125101 9.4456062 1.7492021
-24.859941 9.9612885 2.2712698
-22.476488 10.466729 2.0640042
-19.760624 10.663774 1.3461621
-16.163347 10.653141 0.84847736
-13.901875 10.646809 0.54151434
-10.978736 10.355968 0.31023714
-8.0358219 10.547944 0.2200665
-5.1065273 10.476183 0.096493207
-1.2015678 10.342857 0.12842563
1.3769262 10.443717 0.12387468
4.4062252 10.577274 0.16657367
6.3385496 11.609141 0.11142214
11.003196 9.4294538 1.1710025
14.767342 9.4958563 1.3989557
16.204243 9.8276205 1.3765328
19.543274 9.561779 0.97907317
22.272844 9.9174776 1.5895152
25.544588 9.9098606 0.62931812
28.385765 11.054421 0.83709991
32.081532 11.081439 0.98394525
34.2626 10.165976 0.8943603
37.667793 9.9468985 0.761608
40.356018 10.642673 0.71938235
43.222225 11.303596 0.4592241
45.271431 11.895144 0.36468887
-21.949148 13.436504 2.6045241
-19.494022 13.540524 1.8664857
-15.959882 13.39635 1.2514241
-13.643994 13.567084 0.72472548
-9.9953613 13.648808 0.34532034
-8.300703 13.046365 0.23504372
-4.2898355 13.267671 0.1093321
-1.2453727 14.017464 0.13622171
1.4824364 13.774285 0.11445031
4.8799891 13.406506 0.22364251
6.7314653 13.629865 0.2029451
26.229279 12.205652 1.0904459
28.699465 12.878106 2.1054237
31.829731 12.874068 1.2359444
34.455227 13.083892 1.4271557
37.174614 13.586144 1.4475843
40.302624 13.46664 1.3608416
43.396702 13.400388 0.8580597
46.924568 13.808025 0.90561217
49.312397 14.41503 0.64165139
51.184452 14.627137 0.55803084
-21.595119 15.784898 2.538296
-19.337309 16.311117 2.316138
-16.704426 16.749523 1.8667513
-13.487519 16.306427 1.166175
-10.66619 16.825558 0.51826739
-7.8145733 16.200676 0.23758247
-4.2222514 16.564808 0.16665472
-1.24884 16.531195 0.22891863
1.6461655 16.657763 0.22082533
4.905601 16.650339 0.29659176
7.1197581 16.377211 0.37090111
9.4649582 17.462412 0.3676126
35.391838 15.411367 2.1154633
37.124565 15.478771 2.3799493
40.786217 15.769291 2.0543981
43.115772 15.601972 1.6455841
46.795963 15.711641 1.389917
49.078674 15.630404 1.0249339
52.32402 16.160854 1.0548508
55.906067 16.957378 1.034539
58.701633 17.59527 0.27975821
61.09713 17.933264 0.34241152
-22.242317 19.41659 2.4081702
-18.983498 19.259365 2.7686808
-16.706003 19.420998 2.3860016
-13.53064 19.401014 1.5606061
-10.423473 19.732183 0.6365822
-7.6904082 19.681808 0.3176752
-4.2265015 19.74259 0.32266507
-1.4369434 18.982483 0.15111771
1.1465536 19.361984 0.31918871
4.8469229 19.466188 0.24524446
8.0003214 19.123213 0.4796086
9.8938828 19.65201 0.49387589
53.837387 18.507895 0.020296812
55.242302 18.817343 0.47756386
58.922443 18.981739 0.91507751
61.274578 19.536987 0.56746066
63.993645 20.456381 0.25879613
-18.860491 21.601007 2.9175251
-16.028198 22.424673 2.5933206
-13.903354 22.420059 1.9210857
-10.361279 22.266039 0.97252738
-8.1940632 22.896347 0.43171212
-4.364821 22.394089 0.38060346
-1.7047262 22.378599 0.29584849
2.4663327 23.5741 0.43477699
3.8202612 22.148848 0.30526236
8.2612991 22.920424 0.63234234
10.434337 22.430397 0.67015278
12.900229 23.068172 0.50928944
64.7314 21.473572 1.9706451
-15.673683 25.252476 2.8481846
-13.824477 25.421759 2.2926378
-10.465501 25.267845 1.3735387
-8.0088568 25.248812 0.57675093
-4.0777392 26.196531 0.54428554
-1.6297418 25.980091 0.50394237
1.7913128 25.24052 0.36821988
3.2837684 25.747322 0.51134652
7.8341756 25.076475 0.5851649
11.090009 25.350849 0.75750601
13.456084 25.421856 0.48928428
56.457226 26.327389 2.4205546
57.353661 26.380486 2.6001945
-13.257554 27.600178 2.3426888
-9.8145056 28.086329 1.3461151
-8.1449614 28.821573 0.7745465
-4.4962435 28.074648 0.50807172
-1.8624127 28.006067 0.58687413
0.61590397 27.208281 0.41319358
5.2237415 28.413956 0.49729219
6.5146904 28.163811 0.6487183
11.596046 27.340033 0.7329464
13.800042 28.380247 0.52227408
56.267235 27.040339 2.1845121
57.223732 27.486195 2.8208432
-15.777913 31.948975 2.6139071
-13.696198 31.952433 2.463248
-11.163744 31.875523 1.8850703
-7.4595571 31.743469 1.1433302
-5.3995805 31.674908 0.77501899
-0.94193208 30.302311 0.82018775
2.8539319 31.460241 0.74538517
4.2251306 31.581388 0.81209821
13.856825 30.48518 0.5875861
-15.034556 34.037197 2.9351771
-13.239434 33.9576 2.6728103
-10.38659 34.090317 2.2590985
-7.5376134 34.185585 1.8551778
-5.339395 34.591778 1.0551863
4.8914366 33.022724 1.138428
-10.16232 36.979343 2.5521717
-7.8138084 37.407761 2.2877543
-4.5164075 37.534981 1.3432052
57.264347 38.012466 2.4314909
103.67632 37.976154 0.72251421
105.48961 38.137985 2.4181886
-12.688353 40.285374 2.1759827
-10.897966 39.829693 2.8369517
-6.9784513 40.611313 2.458761
-4.0720682 40.298191 1.626369
-2.6803927 41.185856 1.2016112
57.319267 40.440212 2.6567597
-6.8696189 43.345284 2.6435974
-4.2449679 43.086731 2.1194694
-2.0449803 43.612617 1.5430005
-6.4185824 46.170155 2.7406588
-4.3874607 46.106888 2.5415821
-1.5448314 46.491814 1.792755
0.010645643 47.945251 1.6105926
-6.3336587 49.303555 2.8688178
-3.9469562 49.436073 2.594686
-1.4741018 49.541908 2.2655854
0.67348737 49.776981 1.5862004
-4.1116362 53.235718 2.6828535
-1.535448 51.844501 2.5620444
1.0207589 52.454685 1.9482261
-3.2559299 54.166241 2.7254272
11.896579 75.18811 1.7900994
12.956469 75.13131 1.7003508
52.433846 -126.577 4.7074752
55.075661 -126.34784 5.0704937
53.310432 -125.23192 4.5126133
55.218266 -124.94053 4.2757869
57.410843 -124.79732 3.6148787
50.908985 -120.14975 5.7209125
51.196026 -120.1151 5.7223778
51.791645 -119.70788 5.6925426
15.938036 -111.59193 4.2996578
22.910879 -112.27658 4.3770285
29.839989 -111.42484 5.4578204
31.671848 -111.86607 4.6905794
33.579361 -112.54648 3.88415
38.820053 -111.20036 4.9222293
40.604977 -111.33508 5.7401686
42.41692 -111.3525 5.6845431
50.30521 -111.37721 5.3797803
16.694286 -110.44495 5.1728201
22.472126 -108.95993 5.042901
24.980417 -108.85071 4.7046294
29.537474 -108.99971 4.7347279
31.148046 -109.32094 4.6332736
34.399639 -109.76717 4.5786343
37.738052 -109.32101 4.8940859
40.345169 -108.64846 4.9551015
42.489288 -108.88857 4.4441209
46.996365 -109.99271 4.4712572
49.747559 -110.44188 4.2247682
9.7160559 -105.74336 4.4206386
14.649493 -106.50375 3.9951892
16.558752 -106.49646 4.3211436
20.004875 -105.88283 4.5290093
22.185789 -106.29829 4.5615425
25.395718 -106.23331 4.5395141
28.771544 -106.5119 4.4372573
31.731527 -106.13628 4.3192654
34.077946 -106.7038 4.5966482
37.167442 -107.07845 5.348278
40.609871 -107.77174 4.0079694
42.462524 -105.72173 3.8863366
49.143147 -105.85007 3.2134895
-0.40385246 -102.04909 3.7344489
2.1801238 -104.49843 3.2437589
4.7905011 -103.04787 3.4608586
8.5957384 -103.05352 3.7183335
10.600638 -102.49618 4.1207948
13.022876 -102.88786 4.1353831
16.68449 -102.92781 4.2257586
19.693624 -103.00763 4.2649307
22.523329 -103.42088 4.411902
25.422325 -103.83303 4.1935811
27.978691 -103.56036 4.2040558
32.27792 -104.81226 4.6298041
33.27253 -104.64524 5.3310981
-6.5139008 -100.34679 4.349916
-4.7912531 -99.746513 4.8967476
-1.0784594 -100.12329 4.1794887
1.2714628 -100.01008 4.0872507
4.6042051 -100.0742 3.8625848
7.7359715 -100.60202 3.6993768
10.812696 -100.39087 4.0479116
13.520503 -100.12112 4.0184383
16.60611 -100.47591 3.7875538
19.713339 -100.73995 4.1375241
22.275583 -100.82199 4.2658052
24.771091 -101.62096 4.1262074
-16.066267 -97.005074 4.0431876
-13.367318 -96.472801 4.290822
-10.311474 -96.811462 4.9276438
-8.3028803 -96.771217 4.2680416
-4.380444 -97.505493 4.4222999
-1.7589622 -97.301369 4.4114532
1.7797444 -97.382889 3.8625791
3.9878695 -97.317238 3.7131369
7.4506488 -97.387245 3.6903772
10.589374 -97.798096 3.8167036
13.912367 -98.019638 3.9140873
16.626795 -98.287155 3.8230686
19.445709 -98.600845 3.7424638
21.333239 -98.606667 3.4506106
-21.919703 -95.40416 5.5373635
-18.576933 -94.084625 4.7637868
-16.607016 -94.250313 4.7692499
-13.219267 -94.680794 4.586194
-10.562487 -94.451912 4.300375
-8.0072794 -94.64418 3.8032167
-4.7287011 -95.229141 3.8793399
-1.2646799 -95.85582 5.2948961
1.8059196 -95.410416 3.645339
4.6042504 -94.767006 3.7841651
7.5131245 -94.987854 4.1416903
10.318448 -95.348969 3.5009396
12.770641 -95.608009 3.4668629
29.165424 -93.650063 3.1495144
30.469187 -93.467247 3.2615268
-21.396145 -90.553978 4.4104452
-19.412605 -91.144745 5.011723
-16.178053 -92.537277 5.2500105
-12.9558 -92.072289 3.7429972
-11.210031 -91.441429 3.5989304
-8.1051626 -92.68026 3.386251
3.9698324 -92.2939 3.5999908
29.746145 -92.641525 3.1932392
31.554934 -92.090256 3.2295413
33.383217 -91.287247 3.3960757
-28.183918 -87.42791 4.8779659
-26.77457 -87.53437 4.669343
-21.414215 -88.534119 4.6132288
-18.811655 -88.899216 4.8253794
-17.768414 -88.702553 4.8386259
-28.036177 -86.221054 4.9427366
-26.017986 -85.852036 3.9869683
-39.622124 -31.790279 3.2405107
-39.262554 -28.528242 3.8604283
-38.663948 -28.576998 3.9012733
-42.660965 -25.581852 4.148509
-40.699921 -25.293766 4.6475515
-49.583572 -21.261101 3.0887363
-47.317375 -21.387228 3.491785
-43.544006 -23.533884 3.0165582
-39.557774 -21.712696 3.4143748
-48.13792 -19.835066 3.5249295
-47.75972 -20.49531 3.5851188
-40.412167 -20.689016 3.5615821
-33.421566 -18.472254 4.1119885
-32.546196 -18.43574 4.204812
-42.040684 -15.575551 3.8553061
-41.351803 -15.481192 3.6969564
-36.637585 -15.27077 3.6843107
-34.254234 -16.015316 4.1139021
-32.44368 -17.193815 4.6057119
-45.635567 -13.498249 3.2836196
-43.422695 -13.428023 3.6586082
-41.367092 -14.535382 3.9355853
-37.319069 -13.690858 3.7653315
-35.313549 -14.444513 3.8221807
-29.033812 -12.723049 4.2066684
-25.413361 -12.182161 3.6009517
-42.635345 -11.483595 3.3502879
-40.590199 -11.187935 3.1345756
-28.147694 -10.637739 3.9902933
-25.509871 -10.784437 3.6228366
-23.126638 -9.9419956 3.4917963
-31.174232 -6.9738455 3.2129486
-28.060749 -8.1395302 3.5262649
-26.286802 -8.3407602 3.961889
-45.03849 -3.8903875 5.5769606
-44.692455 -3.9990709 5.4060235
-30.629011 -5.4752994 3.5223224
-25.228006 -3.0028913 3.4948537
-19.186039 -4.6451855 3.3988819
-17.318714 -4.3363228 3.1696286
-14.768188 -4.4989314 3.0354836
-45.589775 -1.721175 5.1563997
-44.034447 -1.2658765 5.1458721
-38.191658 -0.29432642 4.398984
-25.070951 -2.5735283 3.5487602
-16.170755 -1.0798458 3.2907889
-14.750349 -2.4325345 3.2002337
-8.2343559 -0.94195193 3.193202
-39.218307 0.71016586 4.7245712
-38.486103 0.85312665 4.9716635
-35.46339 0.79689133 4.0012007
-31.712408 1.3000119 3.7741113
-16.844646 0.26616189 3.034934
-8.1097145 0.3073231 3.2193296
-4.1480536 1.6308843 3.104738
-21.195063 5.8775182 5.6806479
-20.163891 5.5502386 4.339354
-15.834109 5.9680915 3.9991627
-1.4406214 4.8962178 3.0575025
4.4743071 4.8582587 3.6893709
-28.162588 8.4167461 3.8961637
-25.244122 8.1985874 4.9396186
-22.278725 8.2189646 5.1388502
-18.898613 7.1872568 4.5454717
-16.113489 7.64955 4.6818953
-2.1458428 6.2584066 3.0983963
5.4475365 6.7225003 3.2451999
34.101959 8.2986603 3.2573636
-33.618717 10.223444 5.6283822
-32.037014 9.8927832 5.7817001
-28.037907 10.232814 4.7714453
-25.991137 10.896777 4.3684421
-22.443184 9.9274673 4.3342643
-19.584576 10.687606 5.5611925
-15.958702 9.9803696 5.0804291
-14.806674 10.776909 5.7651682
22.658146 10.358871 3.0553782
34.100166 9.3253803 3.5291343
39.91571 10.954452 3.1539679
-27.545362 13.120401 4.8753376
-25.558495 13.248974 4.8190784
-22.383411 13.674059 4.1342101
-19.437105 12.90706 5.2090397
28.852999 13.288294 3.0501757
43.369114 12.778611 3.6318123
-24.230505 16.102514 4.0312982
-22.692472 16.197506 4.3080649
-19.551247 16.846191 4.201983
-17.578314 17.659262 4.2851501
50.716484 15.971965 3.5192318
52.505341 16.710148 3.9465809
54.902023 17.558092 3.7833562
-24.258024 18.611265 4.3758955
-22.570395 19.323172 4.2100239
-19.374659 19.732063 3.6197908
-17.274624 18.822554 4.2791743
56.473469 18.227041 4.0158305
-22.225477 22.334131 4.6271114
-19.187906 22.522364 3.7454221
-16.112495 22.56115 4.3249993
-14.751954 23.229971 4.569766
-21.256216 24.866695 4.5253496
-20.174072 25.419943 4.6179299
-15.585516 25.236296 4.4092832
-14.301016 25.95359 4.210958
56.180359 26.768423 4.3491755
57.592957 26.58275 4.0810747
-18.859442 27.790085 4.9274459
-16.97114 28.630144 3.7300146
-14.407065 27.894758 3.3953872
55.741699 28.638794 4.5046778
57.251118 28.793924 4.4362721
-19.458368 30.436813 3.5336235
-16.212032 32.076588 3.7863777
-14.731619 32.367237 3.2017474
55.16951 30.580328 4.8119316
-18.151176 35.315876 4.7822785
-16.056793 34.361378 3.9791689
-13.798067 34.989822 3.5793145
-11.275265 35.174137 3.1525376
-16.109673 37.723877 4.8979998
-13.86626 37.650608 4.0648546
-11.150086 37.677757 3.1788218
-8.1602459 38.082664 3.1054568
57.236908 38.165394 3.176239
105.32498 36.759197 3.2970848
-15.279191 39.974468 5.0442772
-13.211579 40.503368 4.3511319
-10.624839 40.603065 3.5352442
-7.5183783 40.416172 3.1663849
-5.5500164 41.10965 3.0833852
57.17675 41.504524 3.2942235
-16.32398 44.609344 5.7941518
-13.142562 43.411968 5.1043601
-10.27 43.32835 3.9337761
-8.5472965 43.665749 3.5675666
-4.5834341 43.823288 3.2257693
-15.694004 45.049667 5.8158426
-12.675317 46.066177 5.4794068
-10.819325 46.592144 4.7971745
-8.2234488 46.57687 3.7404416
-4.3506269 46.229954 3.5308716
-2.7759871 45.609974 3.1460648
-12.114098 50.924896 5.5830202
-10.58504 49.293224 5.0724511
-7.6885858 49.917351 4.3191833
-4.8881636 49.738651 3.2891793
-2.8547418 50.170551 3.2314382
-12.285536 51.12022 5.6936402
-10.275294 52.190243 5.536212
-7.433857 51.909512 4.7561727
-4.5114036 53.062592 3.7785261
-2.6295106 53.219959 3.4244568
-9.9063988 54.06855 5.608551
-6.8747854 55.745964 4.9072075
-4.1314712 54.383789 3.7109528
-2.6614385 54.446255 3.4962945
11.75543 74.932983 5.1452446
12.902524 74.9244 4.651916
11.74842 75.085648 3.7211506
12.753036 75.050972 3.968869
69.775711 -153.88943 8.4002829
69.223274 -152.75581 8.7613029
53.236748 -126.57805 7.6808901
55.175201 -126.84396 7.1486664
53.519344 -125.84182 7.0512018
54.256405 -125.8459 7.1211076
50.568054 -120.46667 7.3964691
51.913116 -120.70921 7.8817439
35.587337 -115.38796 7.0358233
36.279907 -114.98161 7.1374273
43.378014 -114.65335 6.999434
14.9941 -111.70951 8.0180721
15.648379 -111.74412 7.0486422
21.919331 -111.03123 8.4729443
29.706404 -112.42156 7.1718106
30.574987 -111.31335 7.859724
34.826088 -113.36296 7.8374085
41.639465 -111.49468 7.9234414
42.997524 -111.8465 7.289825
50.328735 -111.76968 6.7414198
16.24107 -109.14635 7.7901874
20.216034 -109.22726 7.8975425
22.283096 -108.75802 7.8563643
24.958786 -109.43637 7.7391224
29.643978 -109.79739 6.6025977
31.716497 -110.1651 7.0867734
34.857162 -109.36626 6.9635592
37.41362 -108.938 7.6169677
40.412861 -109.16338 7.0971708
42.13591 -108.85197 8.0808191
50.164665 -110.71632 6.2684584
13.842942 -105.94469 8.4049129
16.139107 -105.97901 7.9622598
20.761511 -107.71591 7.870214
22.040756 -107.61693 7.3230786
25.314417 -106.07122 6.7326355
29.239428 -107.51108 6.1849866
32.24091 -106.73371 6.6155305
34.170769 -106.59555 7.2257094
37.27478 -106.21989 7.7111673
40.079075 -106.48331 8.7199478
-3.8022444 -102.68083 7.8960247
-2.3636093 -103.07348 8.1388998
11.861827 -104.06143 8.1571312
13.275947 -104.18314 7.3750763
15.603295 -104.27184 6.8505802
22.090431 -103.71416 6.6498027
25.19021 -103.94487 6.3043427
32.676792 -104.49078 6.8558507
33.310883 -104.16404 6.9160848
36.651985 -104.86961 7.3109131
-15.265631 -100.18945 8.254179
-14.752438 -100.19389 7.9474382
-4.9495502 -101.58181 7.3787012
-2.5509233 -101.99361 7.572619
2.0272498 -99.431145 6.1781759
6.3063536 -100.49268 6.3111882
11.699635 -101.74319 6.1565123
13.786558 -101.75774 6.2533121
-18.910149 -96.123787 6.5522871
-15.847301 -96.823799 7.3259916
-14.06611 -96.343773 6.9749002
-3.4276433 -98.078018 6.235837
-2.8651931 -97.430504 6.6644969
2.1394448 -98.900337 6.2826028
-21.823469 -94.743256 6.7819333
-19.685476 -94.161491 7.0270653
-16.07876 -94.374382 6.6073217
-13.415709 -94.55114 6.6021338
-10.661497 -94.343575 6.2656422
-21.071362 -90.427635 7.5557351
-19.44422 -91.254311 6.5870914
-15.873947 -92.503456 6.6797166
-28.530041 -88.200729 6.2438588
-20.019854 -88.891052 6.5873771
