# .PCD v0.7 - Point Cloud Data file format
VERSION 0.7
FIELDS x y z
SIZE 4 4 4
TYPE F F F
COUNT 1 1 1
WIDTH 1015
HEIGHT 1
VIEWPOINT 0 0 0 1 0 0 0
POINTS 1015
DATA ascii
-11.391883 -12.181239 -14.450605
-10.539875 -11.655317 -14.721577
-12.336572 -7.0416903 -13.688491
-11.720103 -6.9263592 -13.808686
-4.7202325 -5.2332063 -14.597226
-3.6826668 -5.2375231 -14.601551
7.5301905 -89.463181 -8.3772812
9.0709038 -89.563789 -8.3624249
-19.73835 -68.143448 -8.0600319
-21.292889 -66.378036 -8.3472652
-19.940851 -67.817833 -8.153553
-20.230373 -63.244587 -9.0785408
-25.405441 -40.473503 -10.394972
-25.892687 -37.978729 -10.78745
-36.185173 -34.457985 -8.1133709
-34.057117 -32.895962 -9.2231236
-36.29401 -28.253302 -8.8900356
-27.857391 -23.821726 -10.677977
-36.36377 -27.127626 -9.1644611
-32.324249 -29.141319 -9.2431593
-2.0082254 -4.7323565 -8.0465164
3.2615223 -4.9020572 -10.895039
5.2935553 -4.47791 -8.7915592
3.5221176 -3.7068851 -8.5375652
7.4435058 -3.848856 -8.0205564
8.9278975 -3.4742491 -8.3531227
-4.4777646 -88.61747 -4.3454871
-1.3563756 -88.352463 -5.6831322
2.2125318 -88.561729 -5.9696469
5.8825002 -89.157234 -5.6726542
10.066582 -89.715416 -5.5010109
13.788101 -89.719406 -5.3920135
17.678329 -89.671906 -5.1219411
21.583405 -89.309067 -4.6768603
26.262123 -88.955551 -4.5137272
29.564762 -88.601585 -4.977932
32.313763 -88.94838 -5.9172583
43.086765 -88.911255 -5.8166289
45.992023 -89.108398 -5.792891
49.786175 -89.367783 -5.767149
52.803391 -89.533356 -5.6700044
-12.237178 -84.260788 -4.2076421
-9.4938393 -84.80526 -6.0020394
-5.9862757 -85.88176 -5.8438401
-1.966265 -86.715736 -5.5945582
1.6907458 -87.270248 -4.766118
4.5944438 -87.750298 -5.1292143
10.840544 -87.579155 -4.5897121
-16.543653 -80.675629 -5.0367355
-13.910573 -81.971283 -5.5929451
-10.452613 -82.194725 -5.4539914
-6.3923378 -83.104568 -4.7142873
-21.363022 -77.291481 -5.0612226
-17.77482 -78.266342 -5.8082633
-14.03852 -77.673958 -5.3124819
-11.014155 -79.373596 -5.6292095
-24.958361 -74.508232 -4.8805146
-21.517059 -73.935776 -5.5212474
-18.387344 -73.825882 -5.7064123
-15.165363 -74.927101 -6.0209556
-29.067837 -70.190971 -4.6692805
-25.911501 -69.480751 -5.2690706
-22.502323 -70.349129 -5.6809864
-18.726212 -70.229858 -6.5153246
-33.778507 -64.929619 -5.0779233
-29.932955 -65.341339 -5.047183
-27.033167 -67.220634 -5.6125917
-22.484735 -66.656441 -5.262742
-36.092686 -63.447731 -4.6948428
-35.247932 -63.583508 -4.7850547
-28.980925 -62.798332 -4.8078771
-27.895645 -62.628654 -4.7980156
-40.493565 -56.665398 -4.6642647
-39.294964 -57.220997 -4.8274326
-32.986973 -57.564678 -6.4340916
-31.832359 -58.869331 -5.9759946
-38.419838 -52.656017 -4.6473589
-34.181763 -53.462742 -6.2005272
-37.133541 -49.537903 -4.9515457
-34.880516 -50.139767 -5.1501346
-31.606045 -51.61174 -7.5087366
-37.13966 -45.546963 -4.4225798
-35.303856 -44.34528 -4.7136631
-29.537621 -44.576637 -5.1763043
-40.360165 -41.714535 -4.3714352
-36.504536 -43.238293 -4.3338199
-34.790504 -43.016983 -5.008194
-29.818548 -40.983627 -5.125104
-26.23641 -40.495369 -4.9579864
-22.640881 -40.926491 -4.8730116
-43.226852 -37.119576 -4.6723862
-36.258049 -38.428848 -4.7996254
-33.12384 -37.970943 -4.8442311
-30.094933 -37.937614 -4.7664766
-26.008743 -37.82634 -4.727756
-22.80382 -38.804447 -4.8603153
-19.64546 -36.986195 -4.5989366
-41.82798 -34.038116 -4.7981968
-36.571377 -34.965103 -5.4467754
-34.539318 -33.687084 -6.2944689
-30.020058 -33.98143 -4.4804564
-26.725637 -33.70229 -4.630444
-21.123426 -32.299316 -4.4954715
-19.415091 -32.478336 -4.3569798
-43.260674 -30.903097 -4.770762
-32.777359 -29.656235 -4.9517131
-29.713724 -29.967445 -4.561049
-25.969931 -29.862492 -4.67133
-21.688759 -30.458977 -4.5499229
-19.523048 -31.083975 -4.3342552
-32.275894 -26.416679 -5.2416716
-29.405573 -26.35063 -4.4380507
-26.483839 -26.560068 -4.4037476
-21.383955 -27.286322 -4.4222813
-19.748999 -27.31184 -4.5440679
-44.657463 -21.492798 -4.1266222
-29.076582 -22.749647 -4.6868329
-26.33539 -22.043896 -4.4153643
-23.597887 -22.226913 -4.6889753
-28.696787 -18.572903 -4.6580114
-25.206463 -18.209934 -4.3743076
-23.293663 -17.461332 -4.276844
-29.782129 -15.740371 -4.5899391
-24.950993 -14.68158 -5.9277668
-21.958309 -14.030518 -4.6943951
-19.152313 -12.880328 -4.2457275
-21.362867 -11.052023 -6.321167
-18.230959 -9.7796869 -4.9916263
-14.691251 -10.722074 -4.3362236
-11.973036 -9.6293974 -4.0229998
-9.2523079 -5.1247525 -7.2527156
-7.3825531 -5.0082521 -7.2889519
-2.2873108 -5.1128626 -7.9831457
2.7880287 -4.1314273 -7.9808021
6.059227 -4.5633445 -5.6031179
8.5409727 -4.4762969 -4.7414832
-4.9840002 -1.5620631 -6.6397548
-0.56390882 -2.6336703 -5.4538903
2.1189399 -2.2149551 -5.3538733
6.3325219 -1.7904073 -5.667943
9.2517958 -1.4879568 -5.8411446
14.231027 -1.9561476 -5.1021018
17.1912 -1.4504833 -5.0352712
21.602018 -0.31598106 -4.7652607
6.3063121 0.38708091 -5.3686113
14.151054 0.78320998 -4.0719328
18.211645 1.5630138 -4.1320381
23.510679 0.26224312 -4.3524818
26.403198 2.2101989 -4.5563645
29.067051 1.4756753 -4.3483024
63.331562 -113.27781 -0.35906202
64.704933 -113.92589 -0.36633933
57.352043 -109.70692 -0.54508847
14.827948 -104.71377 -0.21844065
31.69524 -104.4987 -0.4556548
33.949619 -104.46266 -0.44781691
41.181911 -104.87877 -0.1824221
48.94128 -106.25714 -0.19851971
-0.55484366 -101.23275 -0.1338228
3.4554501 -101.60617 -0.067891955
4.6542277 -100.65242 -0.26851338
11.372895 -101.53064 -0.161116
14.457278 -100.72954 -0.26552472
18.766916 -101.4551 -0.30500713
26.319799 -101.56449 -0.30166292
30.705326 -102.17077 -0.56688911
34.488663 -103.92059 -0.4036178
42.171082 -102.02766 -0.51214033
46.318565 -102.84126 -0.4037374
48.164207 -103.48283 -0.15305883
-16.980799 -97.060722 -0.1587013
-14.490009 -96.351379 -0.45020935
-0.14412189 -99.120399 -0.29114324
2.305764 -97.622383 -0.30534273
6.1218238 -97.180397 -0.41182792
9.5786953 -96.806877 -0.34198374
14.824173 -97.450401 -0.41222203
17.587017 -97.201057 -0.70258456
21.32106 -96.40506 -0.34800255
26.96217 -97.637306 -0.4004949
29.901896 -98.469559 -0.30031291
34.221909 -98.663033 -0.41198483
39.338886 -99.012817 -0.64562124
42.833221 -98.384377 -0.61807203
-16.21582 -94.114609 -0.61859071
-14.731557 -95.059395 -0.28542918
-11.014749 -92.559608 -0.13046159
-5.3450594 -92.791367 -0.72243118
-2.0695128 -92.976128 -0.84580386
3.3870833 -94.829346 -0.3902429
6.3356328 -93.120438 -1.0132176
10.403214 -93.47641 -0.94083387
13.847083 -93.476395 -0.9088524
17.667183 -93.665939 -0.94717455
22.150997 -93.255005 -0.71884245
25.959225 -93.443024 -0.66802377
30.369841 -93.173767 -0.73998076
34.18483 -94.174324 -0.91523606
37.72578 -94.073799 -1.1591713
40.988274 -92.372459 -1.6543279
44.791996 -92.331177 -1.5484902
50.01609 -92.06147 -1.9510511
-9.9588223 -91.442619 -0.54261816
-6.2079778 -90.603172 -1.4157897
-1.6296192 -89.176315 -1.4320362
2.4864373 -89.094307 -1.7733754
5.874773 -89.554276 -2.224936
10.240833 -90.102898 -2.3071945
13.968464 -90.270447 -2.1285493
18.092979 -90.330391 -2.0432997
22.093164 -90.214638 -1.7546991
25.765259 -90.063171 -1.8284733
30.035151 -89.905624 -1.7734891
33.914074 -89.848747 -1.4730849
37.40255 -89.991753 -1.3846622
42.061134 -90.326942 -1.2766634
45.672909 -90.448418 -1.4058751
49.621517 -91.108238 -1.1298989
52.175453 -91.756035 -2.5117188
-24.124115 -84.830849 -0.64239252
-23.707085 -84.747169 -0.83640969
-18.635885 -84.37114 -1.6080725
-12.865645 -84.918846 -1.7847681
-9.9919672 -84.926437 -2.1646202
-5.5133252 -85.524994 -2.3377078
-1.9506909 -86.288895 -2.0138476
1.6729637 -86.806129 -2.2059159
5.5075474 -87.739113 -3.1666794
9.533432 -87.704338 -2.9670494
19.128632 -84.073036 -2.4237161
23.879711 -87.984238 -2.7841444
25.553196 -87.903862 -2.0976844
29.425699 -87.849197 -1.7087096
35.397484 -87.845139 -3.6018732
36.60371 -87.826324 -3.5201318
-21.207684 -83.024887 -1.6413316
-17.519609 -82.201279 -2.7996557
-13.240579 -82.710526 -2.6803646
-10.349668 -83.281929 -2.9390519
-6.939641 -83.656914 -3.3441441
-2.0353839 -83.892662 -0.39510906
19.149845 -82.374023 -2.5502796
21.900288 -81.36097 -2.7994566
24.205954 -80.117943 -3.1075714
-40.165146 -77.367836 -0.23056924
-38.441647 -76.71212 -1.5541793
-24.153976 -77.475243 -1.4407047
-22.46316 -77.329689 -3.3493321
-17.67215 -77.920845 -2.9415357
-14.360548 -77.841217 -3.723675
23.214588 -78.99147 -3.1773214
24.648569 -77.941116 -3.0879476
-38.327248 -75.610985 -1.1022897
-29.902304 -73.291824 -2.5661659
-25.962397 -74.578644 -2.42711
-21.640179 -73.221283 -2.5663567
-17.245909 -74.343758 -3.6132603
25.164059 -75.830154 -3.1262965
-29.790516 -71.297699 -3.9531198
-26.294622 -69.7631 -2.7162979
-21.689022 -70.086899 -2.4183896
-19.208183 -71.062401 -3.8196919
-33.936737 -64.718643 -3.2997053
-29.953238 -65.696716 -3.5500107
-26.409599 -67.301872 -2.8330855
-22.796368 -67.061546 -2.2533906
43.732269 -61.959045 -0.44058248
45.595036 -60.814842 -1.1596167
-40.098541 -56.288651 -2.9978337
-39.341995 -56.821247 -2.9071641
43.935707 -57.092407 -1.075298
45.445595 -58.028381 -1.415449
-40.160717 -55.33569 -3.4794707
-39.563457 -55.751816 -3.4193556
43.955402 -53.417583 -1.7170604
44.782684 -54.440586 -1.623021
-37.345459 -50.729134 -1.6640843
-37.432835 -45.081738 -3.1431813
-35.376381 -44.372402 -2.4291503
-40.57719 -41.488556 -3.4848831
-37.570744 -42.255619 -3.4935324
-35.161705 -42.370678 -3.6805885
-30.870192 -40.077625 -2.5690093
-22.516209 -40.157032 -3.1928365
-42.503265 -37.263134 -2.1268651
-37.279442 -37.585609 -3.2690864
-33.906006 -38.045013 -3.1517506
-31.550776 -38.606361 -2.8924873
-24.20941 -38.794708 -3.2164104
-23.298773 -39.100895 -3.0203102
34.751045 -36.601109 -0.65044153
37.660015 -37.323399 -0.32613894
-41.61813 -33.490734 -1.8282106
-37.963993 -34.426304 -2.5940654
-34.404575 -33.783436 -3.0994592
-30.654703 -32.88736 -3.4662187
-26.25386 -33.079334 -3.3979108
-20.966776 -32.323502 -2.5333815
-19.804832 -32.116623 -3.4670291
30.910061 -32.921429 -1.4453627
33.780075 -34.403061 -0.79154873
36.550854 -35.456234 -0.44236612
-44.207409 -28.791088 -1.3177531
-42.311871 -30.356997 -1.6381782
-37.888859 -30.3367 -1.7730501
-33.339905 -30.11458 -3.0011318
-30.792826 -30.061258 -3.3325763
-25.449074 -30.075958 -3.2820959
-21.272253 -30.658056 -3.0863998
-19.511734 -31.503536 -3.1459877
27.450912 -28.61871 -1.72358
29.79644 -30.587883 -1.5085562
32.272602 -31.463568 -0.86738777
-44.771049 -26.369305 -0.6292215
-42.697598 -27.717991 -1.1754363
-39.597137 -27.721916 -0.78164881
-32.624397 -26.051521 -2.7854815
-30.42013 -25.913437 -3.280278
-26.484377 -25.843246 -3.5024941
-20.80736 -26.880442 -3.3648682
-19.720579 -27.093832 -3.3110991
26.712818 -26.471609 -1.7330215
28.442446 -27.642496 -1.5750648
-48.03931 -20.7752 -0.62435871
-45.632378 -21.62368 -0.92435938
-42.496643 -20.866522 -1.5520009
-39.605873 -20.53129 -0.75637418
-33.715828 -22.97583 -1.1983254
-29.190525 -22.085016 -2.915293
-27.066107 -21.23778 -3.3082814
22.957088 -20.676922 -1.6268114
-48.062439 -19.862913 -0.085239291
-45.667805 -18.204487 -0.71253645
-43.354378 -17.559397 -0.8670615
-38.063114 -18.341724 -1.8296493
-34.211796 -17.104881 -1.1615547
-29.052113 -18.224375 -1.9279002
-26.485828 -18.249369 -2.9426079
-23.554493 -16.582415 -3.5958545
19.395447 -17.023212 -2.5967042
21.199783 -18.584953 -2.3668969
-48.987427 -13.172647 -0.97884274
-46.102894 -14.441409 -0.88277167
-42.701057 -15.22849 -0.326491
-37.059357 -13.616958 -0.71827155
-34.186794 -13.746911 -1.2183775
-30.547722 -13.137257 -1.7041909
-24.714796 -14.143447 -1.9140282
-22.025002 -13.336216 -2.5565269
-18.990093 -12.929827 -3.3664966
-15.885774 -12.245524 -3.3968072
15.608543 -12.78935 -2.9012194
18.34096 -14.736423 -2.7609222
-40.460098 -11.149141 -0.24589746
-39.724335 -10.885931 -0.2627337
-32.894726 -11.467565 -1.142382
-29.930746 -10.832686 -1.0795238
-25.179852 -11.056177 -0.67108941
-21.747183 -10.786423 -1.7709808
-17.799604 -10.08815 -2.5665433
-14.730091 -9.4457502 -2.7247863
-10.243057 -8.6028442 -2.9895227
-6.2758908 -8.3502483 -3.1291351
-2.4796062 -8.0499992 -3.0760388
14.549375 -8.7715244 -2.687403
-34.845005 -7.5318532 -0.097126722
-29.212873 -6.4791331 -0.26881754
-24.951956 -7.4610062 -0.99239123
-21.5264 -7.3662844 -1.2486155
-17.544273 -6.8849063 -0.82807136
-14.049821 -6.4598284 -1.3108653
-9.8623571 -5.874372 -1.067389
-5.6589274 -5.7560778 -2.1444318
-2.2780004 -5.1933427 -2.3615408
2.0870578 -4.8465071 -2.7080629
5.4980707 -4.3876801 -2.331636
10.938912 -5.1871405 -3.0040007
13.659801 -6.5136313 -3.0297282
-16.188744 -2.4813585 -0.22017258
-14.779007 -2.859417 -0.53342992
-9.3140497 -2.2955308 -0.52734995
-5.5640607 -1.9337857 -0.59308505
-1.9829934 -2.1856468 -1.0648232
2.381619 -2.439666 -1.8007928
5.8151908 -2.0399938 -1.9877808
9.7229996 -1.1892874 -2.1365774
13.516812 -1.043074 -2.558351
17.270426 -0.52448201 -2.7473476
21.033878 -0.42762157 -3.4647012
-13.744291 3.2767627 -0.13389194
-10.025388 2.6691406 -0.23398294
-5.1337314 1.3244132 -0.39050779
-2.2629995 1.9492593 -0.53766519
2.0744283 2.3186843 -0.6454711
5.7833056 1.9943832 -0.88790435
10.611245 0.85539216 -1.2831868
13.978316 0.9171418 -1.6283839
18.04904 1.8278972 -1.7424287
21.563164 3.0128939 -1.6350209
25.138466 3.2851143 -2.4297893
29.0509 1.3723528 -3.8517659
-25.573158 5.6264892 -0.044208638
-21.182142 6.6621733 -0.14822735
-17.278286 6.0575175 -0.43053043
-13.356405 6.6007171 -0.26111281
-9.9013195 5.3664303 -0.26891193
-5.6009583 5.552372 -0.097416781
-2.335638 6.6264157 -0.19678539
2.4882357 4.8664885 -0.32347852
5.7505503 5.0409083 -0.31583485
9.9752045 5.3199301 -0.49144825
13.715361 5.5370383 -0.26846668
18.000038 5.946938 -0.17151241
22.115007 5.0069561 -0.43294498
26.120501 4.8551855 -1.3230299
29.940638 5.9423475 -1.364996
33.691742 6.9044313 -1.3736314
37.117088 7.2940383 -1.771232
41.10828 7.6066594 -3.4028406
-20.680502 8.3474503 -0.16862461
-18.420715 8.2696762 -0.13513963
-14.137976 10.524185 -0.3408922
-10.23642 8.7336617 -0.33198708
-5.4376006 9.7482386 -0.11000563
-1.6340894 9.3301868 -0.064093232
2.2703955 9.5847197 -0.13337985
4.7546005 9.7826576 -0.1096762
19.572639 8.1366177 -0.016596951
21.9932 8.3851309 -0.17998703
30.401775 8.4759083 -0.16245221
34.539341 8.6155891 -0.69446397
38.021568 9.1932669 -1.0585762
42.205196 10.226748 -1.3079262
45.153843 10.177779 -1.7088809
50.12389 11.325567 -2.0622754
52.07962 11.7182 -2.8067546
-14.724792 12.80075 -0.17611714
-9.8123646 13.844319 -0.30739388
-6.0809331 14.148264 -0.092546754
-1.1781344 13.041099 -0.090121977
2.4136395 13.378388 -0.085157737
5.4413996 13.515797 -0.22439449
8.2496204 15.348129 -0.13090858
32.217026 12.27895 -0.25269273
38.535854 14.29138 -0.24991651
42.7682 12.497024 -0.52835757
45.509838 13.015025 -0.70998335
50.540432 13.820919 -1.1190758
54.146641 13.895408 -1.6084651
57.741333 14.337317 -1.2414317
61.093262 15.547168 -1.0512022
-10.650287 18.215351 -0.091839001
-5.6922317 17.649767 -0.11039419
-2.0768843 18.227051 -0.1771289
2.3106289 16.61268 -0.16320278
6.4881339 18.042412 -0.16347525
8.5583181 17.499062 -0.17887604
51.704712 16.117254 -0.73517191
54.176361 16.782669 -0.37271544
57.704117 17.412645 -0.96317732
61.751526 18.585987 -0.71258259
64.931801 19.196686 -0.85909587
-8.9045191 22.741129 -0.051161211
-5.0298843 20.763126 -0.13534956
-1.5295036 22.393225 -0.15868661
3.7862225 22.496063 -0.2990554
6.6886802 21.967743 -0.17780825
8.9813442 21.389509 -0.15521972
12.959312 23.186863 -0.16449307
59.483036 20.369244 -0.3734028
63.127697 20.140305 -0.058277249
-8.8349733 24.183531 -0.0055510625
9.8378134 25.513023 -0.32523251
3.3565848 30.673435 -0.127211
5.3318548 29.566448 -0.071406431
51.501602 -126.60794 2.3187456
53.791767 -125.2056 2.7734482
57.041866 -124.84719 3.1367698
54.384129 -122.93147 1.6229957
56.555626 -122.71826 1.5828624
53.192593 -118.20925 2.2107713
15.834935 -112.17393 3.4127212
16.037971 -112.12592 3.8231955
32.921787 -112.59492 3.5788109
38.909973 -112.75009 2.4601367
40.901093 -113.18963 2.1681757
50.93623 -113.21653 1.6168654
55.376396 -113.47885 1.9321477
58.513 -112.45084 1.9721316
62.483219 -112.63316 2.2001486
13.921538 -109.17242 1.7331342
16.455284 -111.30791 3.620054
21.868038 -109.4492 2.8230929
24.937143 -108.45058 3.7250111
30.496559 -108.73786 2.7219641
34.017162 -109.80198 2.5320001
37.571133 -110.91406 1.559455
41.526711 -108.58014 2.359508
44.514351 -108.95814 1.3479993
50.730396 -109.7794 2.8993688
58.620365 -110.45135 1.3696738
60.42424 -111.74929 2.1177461
-2.138624 -104.08873 0.91618407
2.1696317 -104.65218 2.4605865
4.4961605 -104.64963 2.9428504
9.9178715 -105.05373 2.0169077
15.053094 -105.21629 1.6446292
17.079077 -105.16039 2.2271008
21.888172 -105.26803 2.9260261
25.966743 -105.70169 3.2051373
30.499388 -106.34716 2.5016358
32.95097 -105.69018 2.4129326
38.623577 -107.4257 1.384501
42.125404 -105.67226 1.5549186
45.484222 -106.28095 0.85981423
48.953064 -106.35593 1.6333187
-6.5488482 -100.45164 3.7383087
-1.2694707 -101.71287 1.7933604
2.4614937 -101.68511 1.8496264
5.3293276 -100.98715 2.0118456
10.432563 -101.19217 2.4145699
13.886268 -101.01099 1.8897208
18.531641 -101.21877 2.2937241
21.976332 -101.60596 2.9999509
26.235395 -101.91238 1.7509232
30.142725 -101.32889 1.1050559
33.355549 -103.4062 0.49537039
39.947563 -100.39389 0.12311059
41.595806 -102.437 0.45501789
44.792858 -103.72955 0.091337822
-17.030313 -96.867378 1.993288
-14.240937 -96.660774 2.2645116
-8.9668427 -96.709732 3.4124911
-5.2060819 -97.362457 3.540868
-1.1179528 -97.95134 2.3654253
2.1952691 -97.793457 2.0526378
6.2918167 -97.744659 1.9161137
10.002934 -97.758224 1.868052
14.269198 -98.918983 2.1090932
18.069157 -98.822975 2.0101614
21.091431 -98.462044 2.0766284
27.535761 -98.39959 0.48448625
29.261345 -98.778885 0.52754551
-18.150999 -94.268082 2.20732
-13.78031 -94.320892 1.7391961
-9.939044 -93.70105 2.3706195
-5.3019357 -94.007301 2.2027044
-3.0234458 -93.385704 1.6580639
2.8872166 -94.650818 1.8699979
5.4873052 -94.107193 1.8697667
10.339175 -94.111717 1.6741966
13.620346 -93.800522 1.3672192
17.933468 -94.315559 0.71858877
22.322607 -93.374977 0.88433504
26.018585 -93.490181 0.92025417
29.513676 -93.25071 1.5217309
32.505352 -93.036407 1.0228311
50.838779 -92.352654 0.59840298
-18.62112 -88.889153 3.4604118
-12.406042 -91.616806 3.2924838
-10.886066 -91.378052 2.5648048
-6.3305197 -90.067566 0.21579373
-1.5353619 -88.593338 0.42799744
2.8576753 -90.436485 0.54021442
5.4956317 -91.055847 0.69622397
10.947025 -90.933853 0.42864332
13.761116 -89.934845 0.17533025
18.18956 -91.402313 0.22237782
23.036949 -91.122238 1.1072693
25.38393 -91.059715 0.84234726
30.086037 -90.796745 0.97623521
33.841351 -90.382072 0.98411202
37.327431 -90.168808 0.83789498
41.899323 -90.080093 0.6863907
46.905941 -91.132767 0.6989609
49.480244 -91.498421 0.39788887
53.934601 -90.153679 0.54091883
-26.212498 -85.4133 2.110769
-12.219613 -85.516624 0.68265152
-4.9470692 -85.409302 0.34357476
-1.3609254 -85.804398 0.48349798
0.32505867 -86.206635 0.56890112
19.229675 -87.461304 1.004384
20.111603 -87.479378 1.1570282
25.925287 -87.541809 0.47652179
29.789593 -87.577827 0.75974447
32.737965 -87.422585 1.5220287
-1.8108803 -83.933228 0.37189668
-23.271566 -67.135628 0.3549633
39.102329 -40.132458 1.0494971
-42.528187 -37.051281 0.96944332
35.40015 -36.503948 0.2860584
37.378052 -38.294868 0.69380271
-41.893307 -32.82449 0.721892
-39.018196 -32.34296 1.5579679
34.434658 -35.629597 0.099656582
-44.284077 -28.366764 0.28904477
-41.544823 -29.834179 1.1951164
-38.263462 -29.498941 1.2452177
-35.426132 -30.207232 1.5600864
-45.361645 -25.241541 0.49908596
-41.780216 -25.507725 2.0998445
-39.394466 -27.61479 0.99058515
-48.406033 -20.456436 1.0648267
-46.831928 -21.937746 0.96703768
-40.921448 -21.313232 1.5986086
-39.452835 -21.741985 1.3110046
-34.737942 -22.689646 0.18404758
-49.087704 -18.967527 1.7416072
-46.440132 -17.705917 0.87382811
-42.551975 -17.854286 1.1895132
-37.642105 -18.678793 2.4182267
-33.83548 -17.300657 2.0830846
-29.125566 -17.514927 0.51525098
-27.697872 -18.508106 0.57564014
-45.230049 -14.138131 1.2582555
-42.498276 -13.611693 1.7985947
-37.266266 -13.670568 2.0081182
-35.010677 -15.108729 2.4077916
-29.414829 -12.904714 1.9444296
-24.731457 -12.432196 0.952402
-23.405422 -12.40076 0.68338555
-41.542095 -11.359553 1.9778531
-37.661312 -11.004229 0.60003883
-33.28204 -10.712189 0.46168089
-29.327368 -9.6983318 1.2551373
-25.35696 -10.606416 1.1959599
-23.215141 -10.490811 0.90578586
-18.958563 -8.3028507 0.55614454
-33.451031 -5.7119231 1.142419
-30.003107 -6.6381788 1.8722898
-25.147533 -5.6088338 1.3090383
-22.904169 -5.3616786 1.1064706
-17.450056 -5.4509521 1.2976792
-14.023204 -5.6279664 1.566542
-9.5625858 -5.6621742 0.96305716
-7.3219233 -5.4890351 0.88348258
-3.1382933 -4.1915512 0.24600899
-38.327805 -0.24009396 3.4892123
-32.731346 -3.8183396 1.6660461
-31.967333 -3.7110229 1.8288176
-25.152655 -2.6967046 2.5899498
-23.021229 -3.0167711 0.8070569
-17.336344 -2.2671125 1.5948068
-15.207561 -2.3187513 1.0505817
-8.8873024 -2.1487041 1.3972148
-6.7408996 -1.4435636 0.87190443
-1.4562055 -0.9756065 0.50608355
0.53306133 -0.71485007 0.23392217
6.321156 -1.13937 0.27876708
10.073038 -0.9334774 0.22004691
12.163703 -0.18327117 0.29991412
-38.140537 0.51595849 3.3383665
-34.970383 1.2925366 2.8492947
-31.662811 1.3258772 3.20081
-25.554258 3.1845355 0.79877591
-23.417089 3.894073 0.72454059
-17.321922 0.35323709 1.2007339
-13.415722 2.0783427 0.40635487
-9.4576216 2.3503852 0.53630441
-5.7531223 1.1641541 0.89460683
-2.0027695 2.3965318 0.85115063
1.2976458 1.7625561 0.42234299
5.2583294 3.2279515 0.64505684
10.576984 2.1279852 0.45663711
14.017238 1.9366877 0.48791331
17.826803 2.6992908 0.37569684
22.142565 3.465616 0.23041339
-29.106606 7.0542717 2.4129198
-25.409693 6.6519117 1.4525746
-21.136757 6.2706461 1.8704213
-18.437403 6.7101712 1.6589174
-13.700455 6.0130777 0.54742008
-10.046443 5.9697332 0.27427462
-6.2939377 6.0839911 0.16682822
-1.6275543 5.1573892 0.86108238
2.3701358 5.0312634 0.45472789
5.7146554 6.1108799 1.1836739
10.186812 6.2642288 0.56392604
14.467299 6.7354918 0.89438432
17.791056 6.7074251 0.5251596
21.939163 6.1783915 0.52829844
25.742863 5.5756187 0.60431564
30.098125 6.7315993 0.64923173
33.565075 7.5231891 0.62808782
36.139511 7.9208508 0.20461956
-28.62575 9.1977425 3.1545067
-25.642504 9.7419748 2.9517546
-22.096781 10.156977 1.9135453
-17.525093 10.188992 1.0221138
-14.295702 10.310547 0.58267045
-9.886035 10.066858 0.26291439
-5.953104 9.6821547 0.14832693
-1.532528 9.7632866 0.10867526
2.1380794 10.24522 0.11811778
5.2308192 10.49572 0.19522928
11.092337 9.2905455 1.166821
15.006049 8.4306517 1.0414104
17.617861 8.9985018 0.78795445
21.689358 9.2897854 1.1144986
25.958326 9.9994364 0.682244
30.574503 10.763308 0.80974615
34.043198 9.3635254 0.98797899
37.848324 9.8087111 0.7745654
41.533882 10.970945 0.63769674
44.566422 11.57322 0.34869218
-24.484245 13.593861 3.6158733
-21.692064 14.092485 2.777184
-18.423056 13.937759 1.6992998
-14.040561 14.111752 0.92702413
-9.5488863 13.848722 0.2918199
-5.408608 13.458204 0.16215803
-1.8774283 14.261909 0.16676863
2.0185006 14.077356 0.13996457
6.0544109 13.90808 0.22165015
8.2726803 15.924631 0.26581171
27.022331 12.450412 1.6208137
30.403419 12.942554 1.5138834
34.015766 13.056175 1.4110631
37.529995 13.693784 1.4929719
41.988968 13.999039 1.39355
46.324268 13.985641 1.0092787
49.923084 14.882382 0.82111675
52.493637 15.502073 0.91370893
-24.373137 16.856245 3.8084109
-21.498194 17.637848 3.2280457
-17.953333 17.940655 2.6833503
-13.732443 17.933716 1.43753
-10.576028 17.935556 0.54239982
-5.8798919 17.988211 0.23838188
-1.8038753 17.759712 0.20687805
1.8348919 17.32555 0.26808503
5.6962738 17.936363 0.30381778
9.199811 18.132429 0.44045189
38.100086 16.020506 2.3949561
40.979565 16.535303 1.925528
46.510242 16.294384 1.3562242
50.979507 16.332895 1.6518129
53.398251 17.108984 1.7644058
58.513321 18.442497 0.85139608
61.100914 19.414297 0.6072343
-20.930992 21.431967 3.7659466
-17.36969 21.778919 3.129853
-14.78609 22.444288 2.6164997
-10.140558 21.840927 0.83879793
-6.2202988 22.458517 0.41796127
-2.220921 22.053207 0.27431691
2.8676143 22.096148 0.3301779
5.5146885 21.431273 0.43028888
9.8671598 22.206564 0.62382698
12.900229 23.068178 0.50928944
59.766617 20.0693 0.89750028
63.25293 20.344847 0.38128623
64.693832 20.993259 0.97178131
-20.047087 24.039557 3.960516
-16.861557 26.402292 3.265934
-14.278028 25.835051 2.7251649
-9.7376051 25.575882 1.1059268
-6.3170323 25.811188 0.46175078
-2.0518 26.340408 0.5158872
1.8882047 25.414726 0.38692647
6.9343801 26.156273 0.61408961
10.242217 25.144449 0.69752783
13.541283 25.868374 0.49067748
55.908638 26.779327 3.1368895
56.991413 26.592793 2.7664428
-17.2404 30.088535 3.6538563
-14.188562 30.275623 2.7076774
-9.4205465 30.054007 1.3283554
-7.0385022 30.384897 0.7174257
-2.3975983 28.983158 0.69514865
3.3810499 31.419188 0.76692498
5.4437175 29.315042 0.52773279
13.779452 28.973164 0.54069006
54.984192 28.891813 3.9345629
-16.419615 33.250153 3.6754651
-14.177959 34.086277 3.1868532
-10.121052 33.952473 2.2146499
-6.2251177 33.789539 1.2764922
4.6919971 32.713814 1.1116853
-13.902209 37.476986 3.6215723
-10.359623 37.932316 2.9505303
-5.6562114 37.93708 1.7591668
-3.563458 39.020679 1.2127386
57.320889 38.491554 2.5781384
103.67631 37.976154 0.72251421
105.43474 37.678391 2.711154
-12.616812 40.70311 2.8335357
-9.9499273 41.755867 3.4475741
-5.892643 41.494114 2.3793004
-2.8429024 41.87244 1.451074
57.221886 40.909817 2.872853
-8.7102289 45.844452 3.7160187
-5.4731445 45.759079 2.8030038
-2.0377092 45.805992 1.9336692
0.010645643 47.945251 1.6105926
-8.2574863 49.350048 3.8890996
-5.9182301 49.800072 3.3666935
-2.2214458 49.824318 2.5400221
0.70218486 50.291893 1.6777275
-5.3818755 53.137638 3.4348602
-3.239557 53.680622 3.295598
1.1280762 52.835339 1.9663483
11.829257 75.163933 2.2798259
12.986148 75.115868 1.9235247
55.981529 -128.36861 6.1138349
56.245026 -128.71707 6.32867
51.575165 -127.59853 4.5534458
53.910709 -126.0706 5.8392863
56.691376 -124.77016 4.7087607
50.94936 -120.44984 7.1132565
54.20105 -123.30001 4.4261904
51.699558 -119.71597 5.6917171
52.159981 -119.67541 5.6958447
15.51065 -112.07521 6.534637
22.910879 -112.27657 4.3770285
29.854389 -112.71236 7.008976
34.716366 -113.64957 6.2245955
36.279907 -114.98161 7.1374273
43.445805 -112.48918 6.8728037
50.204357 -112.03457 6.600606
15.668816 -111.59026 5.99891
16.799723 -110.31183 5.7715077
22.354223 -108.76263 6.7498932
25.02125 -109.16232 6.4854088
30.481682 -109.73676 5.5528617
33.765812 -109.63029 5.6381736
38.468937 -109.21924 5.8679767
41.218021 -109.717 6.1418209
47.183109 -109.96543 4.5539637
50.048843 -111.19859 5.8500547
9.7224922 -105.73239 4.5370016
14.452787 -104.91251 6.9491253
17.059847 -106.02808 5.7408624
22.108498 -106.01378 5.4883327
25.591576 -105.6156 5.1320825
30.250547 -106.23972 4.9641647
33.060291 -106.07209 5.7638402
37.080769 -106.36857 6.4441419
40.838215 -107.76134 4.2082481
49.183304 -106.14972 4.0763183
-14.939205 -100.42529 7.3620753
-5.2230773 -101.3602 6.6828651
-2.8601129 -101.83517 6.8034139
1.0605495 -100.75793 4.4662752
5.1439505 -101.12554 4.6196246
10.682864 -101.52421 4.7261162
13.747298 -102.096 5.4740262
18.533918 -101.61914 4.5577369
21.941362 -101.78017 4.8970995
26.199406 -103.0885 4.9723568
28.3552 -103.07331 4.6098666
33.225227 -103.91275 7.0693512
-16.534521 -96.97229 6.7657919
-14.496353 -96.6269 6.3085942
-9.8516865 -96.816597 4.9758344
-5.0068369 -98.143929 4.8988256
-2.5066144 -97.721352 4.7573605
1.8303739 -98.088089 4.5385036
5.4211903 -98.369667 4.5037575
10.395957 -98.66304 4.4825654
13.660306 -99.151505 4.576066
17.992552 -98.636055 4.3074803
21.207224 -99.710609 4.5604639
-21.765385 -94.870956 6.5684152
-17.746349 -93.544342 5.7357092
-13.834356 -94.389847 5.5438857
-10.572716 -94.652206 5.062573
-5.3904572 -95.537796 4.4732771
-1.5276285 -95.794464 5.172739
2.3768096 -95.365868 4.346199
6.1169291 -95.198273 5.2128601
9.2014475 -95.975822 4.2976255
-28.606842 -88.728561 6.1729584
-27.889114 -88.039803 5.3121014
-20.886463 -89.235809 5.5513363
-18.597771 -89.454292 5.4366074
-12.699711 -91.411522 4.2017384
-11.251663 -91.160133 4.1602578
-28.469437 -86.861603 5.5223932
-26.428951 -86.519463 4.456933
-17.456638 -87.732605 4.7481713
-38.998131 -28.475437 4.1120872
-40.767487 -24.98443 5.7286191
-39.680412 -25.682011 5.3691983
-47.727119 -20.34384 4.0466881
-40.494034 -22.107567 5.9595942
-48.122406 -19.660217 4.0244532
-47.978809 -19.857346 4.0282469
-33.523724 -17.054138 5.0408626
-31.619869 -17.627882 4.9160891
-41.662621 -14.292932 4.3979769
-37.066872 -13.944059 5.4649782
-34.352924 -15.29058 5.1414576
-28.459518 -12.415881 5.3903513
-29.050531 -10.518541 4.815783
-25.749109 -9.6711407 4.4111118
-44.688095 -4.1265659 5.3125396
-43.770523 -4.2596812 6.4853945
-29.959671 -7.390255 4.1259336
-26.311045 -7.8535042 4.7401581
-45.144363 -1.8530881 5.4774251
-43.490414 -1.1872774 5.2378736
-38.17804 -0.29974964 4.4899607
-24.733742 -2.2762337 4.1220326
-38.53511 0.86689728 5.0711327
-35.860645 1.3817372 4.3586268
-28.085672 7.881424 7.3414989
-25.196436 7.649303 5.7201571
-21.203629 6.0469389 4.8968115
-18.018959 6.8397398 4.8245068
-15.783316 6.8483891 4.5126085
-33.329235 10.315003 6.3158889
-29.157221 9.3515339 6.1650515
-26.238121 10.489143 5.3656878
-22.109648 9.4261227 5.454186
-17.577225 9.7291698 5.2433796
-15.623952 9.3952236 4.9678798
-28.210529 12.701682 5.118701
-25.872789 13.227688 5.3983808
-21.863689 14.569883 6.0084896
-19.299051 13.006379 5.5470428
42.93763 12.932688 4.1616926
-24.213745 18.259142 4.3812571
-22.205084 17.529388 5.538518
-17.913288 17.880728 4.8944569
53.787533 17.303125 4.2517285
56.692032 18.341141 4.0529928
-21.938854 22.343744 4.5031161
-17.033209 22.214964 6.210546
-15.248364 22.644426 6.2249908
-20.787237 25.221342 4.7838478
-18.0779 26.351818 6.1551981
-14.701197 25.307297 5.2972326
55.557621 26.906836 5.2405214
57.046841 27.014822 4.8201246
-17.567471 29.02564 5.2184629
-15.455427 31.321321 5.1427598
55.165901 29.787092 4.8568296
57.139339 28.914179 4.4709768
-17.023232 34.199574 4.6405201
-15.201404 34.224388 5.15908
-16.627289 37.773407 5.6630173
-14.574517 38.400703 4.9027624
-11.982586 39.977177 4.43507
-13.508232 42.512184 5.5528817
-11.157838 41.901817 4.3829474
-16.608339 44.591644 5.8093357
-13.011738 45.616409 5.5734358
-10.873485 46.221615 4.7748632
-7.727891 47.385639 4.4865651
-12.257172 51.28294 6.4898715
-9.7680712 50.685303 5.6170573
-7.345582 50.966919 5.3802686
-12.513002 52.959934 7.892015
-10.043811 52.847397 6.0879154
-6.6201367 53.728882 4.9156933
-3.6647222 53.484818 4.6111689
-6.6198854 56.127441 4.7773209
11.791218 74.972946 4.8198614
12.732448 74.988708 4.5247259
69.706657 -153.74771 8.4454098
54.995182 -129.28145 9.3612242
53.658154 -126.75599 8.7917633
39.704357 -121.78477 10.829243
40.422729 -121.88795 11.265913
51.200878 -120.71356 9.5561476
52.460457 -120.72659 8.6482925
19.22505 -114.66634 11.304236
34.874081 -113.63223 8.7736225
42.880112 -113.52733 10.389921
11.341173 -108.77332 10.326009
13.440157 -109.24403 9.9746456
18.737114 -110.85899 10.033587
21.64402 -109.18212 9.3775415
24.822819 -109.78558 8.5914516
30.640383 -111.17424 9.1127377
38.334759 -108.6093 10.074617
41.428047 -109.46652 10.40425
-2.2091556 -104.26272 8.9744768
11.861827 -104.06143 8.1571321
14.204871 -105.83915 8.5663881
16.631348 -106.60253 8.6559324
21.471945 -107.73751 8.5911312
33.888565 -106.25526 8.2744789
38.76852 -106.98074 9.3341084
40.622623 -106.85426 9.4072237
-14.977905 -100.1531 8.198369
-5.6512713 -100.777 8.8880672
-3.2037916 -103.45638 8.8759212
-16.035431 -96.042923 8.1220455
-15.356903 -96.418922 8.1755085
-20.863953 -94.424294 8.107192
-21.304569 15.345919 8.3833809
-20.736183 16.323889 8.3409491
-16.752773 22.065659 8.5679235
-15.229877 22.571156 8.6522036
-17.474674 26.690426 8.6170483
-15.574693 24.641685 8.7448702
56.61702 26.651562 8.0921259
-16.950563 28.410212 8.3087482
-13.939804 43.538563 8.0632629
-12.67314 51.917259 9.1584892
-9.890193 51.634968 8.882555
-12.676322 52.899124 9.0534544
-9.9821854 53.010036 10.169237
-7.7346635 52.864658 8.8764143
39.475838 -122.27778 12.671721
40.162491 -122.0443 12.494285
42.60038 -114.5826 12.220493
39.818687 -110.1068 12.191364
41.432148 -110.06061 12.194113
-9.6734629 51.902576 12.90289
-12.269659 52.942406 12.78464
-9.8417854 52.590942 12.945165
