# .PCD v0.7 - Point Cloud Data file format
VERSION 0.7
FIELDS x y z
SIZE 4 4 4
TYPE F F F
COUNT 1 1 1
WIDTH 1498
HEIGHT 1
VIEWPOINT 0 0 0 1 0 0 0
POINTS 1498
DATA ascii
-5.0668259 -3.9330852 -1.3846598
-3.7189941 -3.8024759 -1.4849257
-2.5154858 -3.8130946 -1.4294879
-2.2709126 -3.745353 -1.4385482
-1.6599443 -3.7586105 -1.4098637
-1.1946921 -3.6252968 -1.3988686
-0.82852203 -3.6699355 -1.3848166
-0.31285423 -3.5343571 -1.3774717
-6.0505943 -3.4731026 -1.2518675
-5.8780704 -3.4269936 -1.320086
-4.9569178 -3.0514934 -1.3901888
-3.558578 -3.2281859 -1.4483163
-3.3656018 -3.3168135 -1.4393948
-2.8757737 -3.0734878 -1.4522228
-1.8462205 -3.2374616 -1.4184731
-1.1553907 -3.2632244 -1.4055597
-0.79473549 -3.2056015 -1.387893
-0.31904954 -3.1821673 -1.3496971
0.27205062 -3.1332715 -1.3365222
1.2350758 -3.0292439 -1.34163
-5.0343819 -2.533216 -1.2912649
-4.8652444 -2.7464347 -1.2644237
-4.2694664 -2.5961227 -1.0942519
-3.521872 -2.8945236 -1.3545935
-3.1055017 -2.6639132 -1.3809658
-2.8000095 -2.6729083 -1.3731706
-2.3766499 -2.696866 -1.3240304
-1.5972795 -2.8790569 -1.376264
-1.3243939 -2.6623964 -1.3606749
-0.68933117 -2.7556987 -1.4209718
-0.23052241 -2.7628744 -1.3737109
0.27702424 -2.7485251 -1.3464184
0.73984826 -2.6552649 -1.3293433
1.1249644 -2.7118361 -1.3402698
-4.7466002 -2.4262452 -1.2708399
-4.2339849 -2.4121213 -1.1328086
-3.7987418 -2.310477 -1.234751
-2.6213086 -2.2830675 -1.2781897
-2.2030785 -2.225445 -1.3104622
-1.7760334 -2.1474409 -1.3013309
-1.1261113 -2.3300476 -1.3594419
-0.75678039 -2.1943464 -1.3411725
-0.26950893 -2.2521915 -1.355014
0.17938963 -2.1860819 -1.3358375
0.65255404 -2.2008042 -1.315156
1.0530068 -2.2149935 -1.3834071
-5.381784 -1.6966145 -1.0659682
-4.0805831 -1.9631948 -1.0171564
-3.1614625 -1.6938847 -1.1083368
-2.7361374 -1.630169 -1.115597
-2.2345119 -1.7571057 -1.1470299
-1.7573913 -1.767786 -1.2468554
-1.3293011 -1.6860127 -1.2506237
-0.6258086 -1.7585278 -1.2256724
-0.17948535 -1.765566 -1.2579463
0.20944729 -1.7006691 -1.2782565
0.66100544 -1.7671103 -1.2831849
1.0414021 -1.9878891 -1.3582052
5.266695 -1.7037407 -1.3032075
5.784236 -1.5970891 -1.1688454
6.0427103 -1.5558373 -1.1919899
-4.6373358 -1.4401878 -1.055511
-4.2685843 -1.3371731 -1.116184
-3.7484624 -1.126519 -1.1036146
-2.7977359 -1.4008584 -1.0727444
-2.2200058 -1.1984137 -1.0983455
-1.7526044 -1.2043573 -1.181018
-1.2030568 -1.2838901 -1.1907574
-0.79557413 -1.1687428 -1.1636405
-0.22127059 -1.2947134 -1.180315
0.14981283 -1.4231589 -1.2308255
2.0330479 -4.5288658 -1.4781734
-0.63383037 -8.3956604 -1.6139877
6.5455813 -1.3568695 -1.1571441
7.3552094 -1.0659273 -1.145583
-3.3464351 -0.99169362 -1.1114144
-2.7392204 -0.77871418 -1.0796436
-2.1004405 -0.89511061 -1.1320145
-1.7103169 -0.88211375 -1.1617961
-1.2426599 -0.68725586 -1.1255828
-0.7337994 -0.75763381 -1.1305636
-0.42196819 -0.83526254 -1.136302
3.9886894 -0.56701469 -1.2123202
-2.1433613 -7.3019457 -1.8324254
2.8982525 -5.6593208 -1.6014376
5.7517266 -0.66334516 -1.1582596
5.9233356 -0.69938725 -1.1631041
6.5006547 -0.83486027 -1.1592305
6.9729095 -1.1028143 -1.1521415
7.573854 -0.59177035 -1.1020724
8.1419878 -0.68267304 -1.1004946
8.9356661 -0.65660048 -1.092425
-2.4704304 -0.081098229 -1.008111
-1.7828019 -0.34864295 -1.0590078
-1.1301596 -0.19769503 -1.0420656
-0.82664251 -0.31007531 -1.0869285
3.8813117 -0.16549726 -1.0364271
1.8157076 -4.3704033 -1.3850975
4.6770806 -0.30309433 -1.1275684
5.2311316 -0.52115887 -1.1538175
5.5681067 -0.20213674 -1.1207066
6.2233696 -0.25087553 -1.0613368
6.8205318 -0.29523313 -1.0887259
7.1865935 -0.42196611 -1.0888945
7.8076262 -0.46793365 -1.0548452
8.1780834 -0.4549326 -1.0874457
-1.0251254 0.01861167 -1.0292808
-0.91786957 0.026838884 -1.0370086
3.3602159 -0.33896345 -1.0447835
4.2644038 0.15670893 -1.035624
4.7230291 0.083984487 -1.0220209
5.2590919 0.22182943 -1.0910146
5.712914 0.42450529 -1.0278358
6.2460418 0.446109 -1.0409482
6.5625019 0.43988732 -1.0115502
10.208936 0.23130564 -1.0241764
11.582558 0.25527626 -1.0113298
-1.0451927 0.56861752 -1.0084844
4.3113513 0.73914456 -1.0268476
4.731771 0.74511456 -1.0313683
5.2435741 0.7630204 -1.029229
5.7449884 0.81352949 -1.0118682
6.1409054 0.70778823 -1.0140752
6.6624727 0.67691028 -1.0140464
4.2861571 1.0208162 -1.0030035
5.6508646 1.1554476 -1.0035102
-44.851425 -36.710117 -0.90048665
-42.577557 -34.451447 -0.8057574
-42.730167 -33.948952 -0.7718575
-42.830807 -33.020313 -0.71230668
-42.135509 -32.708603 -0.70677483
-43.201305 -32.236481 -0.82268453
-43.397621 -31.895756 -0.79740494
-40.079617 -31.703468 -0.68510485
-41.096775 -30.02758 -0.71801859
-37.050365 -30.241158 -0.65395719
-34.638054 -16.827337 -0.85174447
-24.762516 -12.39563 -0.51000494
-22.244184 -11.270791 -0.99005491
-10.687863 -5.5425 -0.60291404
-10.257221 -5.769887 -0.79832298
-9.7435741 -5.7991624 -0.75623077
-9.1389923 -5.6237483 -0.57721823
-9.5546007 -5.4176083 -0.8704502
-9.0675573 -4.6215935 -0.91179895
-8.9858227 -4.5548277 -0.9750793
-5.3613629 -4.5613756 -0.89844084
-9.0711241 -4.4462633 -0.98298758
-8.8818207 -4.3886676 -0.96989232
-8.2606249 -4.0966129 -0.60600495
-5.5476112 -4.3111777 -0.87286401
-5.3780794 -4.4604673 -0.89875984
-5.9131866 -3.6887887 -0.85429108
-4.1710258 -2.5987797 -0.99726039
-3.7751565 -2.7103755 -0.87884533
-2.2836442 -2.6857841 -0.91912913
-4.7837296 -2.3251786 -0.69880456
-4.0584369 -2.1718941 -0.84350705
-3.8996577 -2.0132718 -0.69109637
-2.6252403 -2.2905953 -0.7754389
-2.3939102 -2.1579714 -0.78411722
-4.6849933 -1.5032741 -0.91345644
-4.190721 -1.9958057 -0.87523043
-3.8486955 -1.9108292 -0.83599645
-3.1630132 -1.6246718 -0.75845182
-2.8492525 -1.5868117 -0.87392122
-2.2321839 -1.5010742 -0.91600901
-4.6355743 -1.4672741 -0.8993662
-4.4123888 -1.3414435 -0.99490404
-3.0327678 -1.4493489 -0.71513402
-2.7060225 -1.3535849 -0.8290242
-2.4161625 -1.2036215 -0.95747709
-3.1073868 -0.91160238 -0.78569913
-3.7394996 -0.086910889 -0.93860614
-3.3538129 -0.037428729 -0.97018683
-2.7447326 -0.12540826 -0.99860001
-2.4523501 -0.066652149 -0.99941552
-1.1677657 -0.11988935 -0.98772424
-0.83947998 -0.067302428 -0.75460368
7.1139269 -0.28347906 -0.9776457
7.6674795 -0.41153148 -0.97173285
-3.5129898 0.011022881 -0.97459042
-3.1121101 0.027539209 -0.97810358
-2.7609251 0.061427582 -0.97696918
-2.2680097 0.12657759 -0.90501726
-1.747327 0.22464931 -0.92127281
-1.3463738 0.28125668 -0.95050997
-0.73700589 0.20958498 -0.64379793
-0.24683999 0.29276463 -0.58023161
0.046279814 0.17275944 -0.50118935
5.460567 0.45466211 -0.99834019
6.4820447 0.4380258 -0.98809373
6.8389406 0.42852059 -0.9877671
7.3425288 0.40640569 -0.94970256
7.963985 0.28726614 -0.95227742
8.1066008 0.39544347 -0.97211218
8.9121485 0.33404082 -0.97313476
9.4136877 0.17223796 -0.89527047
9.9062595 0.36553198 -0.95932835
10.030598 0.28967819 -0.9879927
-2.7587781 0.93570215 -0.90425903
-2.2743556 0.88027859 -0.91316754
-1.6920916 0.88739985 -0.90875858
-1.1536148 0.74398434 -0.90232021
-0.86350584 0.68087739 -0.76226318
4.1790872 0.83340269 -0.99398869
4.8483272 0.90892994 -0.99865508
5.3094625 0.87827301 -0.9982391
5.7641525 0.70833433 -0.99292505
6.2546811 0.88436049 -0.98834664
6.6792464 0.84228694 -0.97725695
7.1604137 0.87200356 -0.94414186
7.6355658 0.9197433 -0.95897424
8.321743 0.90780789 -0.95762891
9.2879915 0.92677617 -0.97723675
10.247095 0.91668272 -0.95239282
11.211621 0.91066152 -0.88201267
13.576352 0.90829182 -0.93861097
-5.6485267 1.4712224 -0.57259929
-4.5376439 1.2724768 -0.70317888
-4.1991997 1.2775316 -0.73049098
-3.6986265 1.3321902 -0.72254109
-3.1677363 1.3201957 -0.80260384
-2.7454841 1.2011123 -0.82591224
-2.2101722 1.2082632 -0.8282336
-1.7129546 1.1728007 -0.86489266
-1.2280288 1.2449615 -0.89526242
-0.8534072 1.3748764 -0.8978433
4.2699065 1.2908511 -0.97542226
4.713294 1.2209878 -0.97141802
5.1645837 1.267064 -0.9773618
5.8034039 1.2312025 -0.98628539
6.2300224 1.2367735 -0.9636575
6.7138958 1.2629156 -0.95245987
7.0450644 1.300455 -0.93372434
7.7115297 1.3254144 -0.95389163
8.3717556 1.2640686 -0.94589633
9.3035345 1.1559819 -0.96441668
10.324749 1.0802583 -0.95300657
11.291259 1.1085761 -0.87861216
12.495605 1.0687555 -0.79329926
12.698003 1.1500992 -0.81350344
13.225873 1.2086227 -0.87155086
-5.404047 1.8453937 -0.50604177
-4.8639612 1.8395585 -0.57570976
-4.1717157 1.624794 -0.60326439
-3.7097151 1.6559258 -0.71397543
-3.2646627 1.8464174 -0.77154678
-2.7437651 1.7774475 -0.7914843
-2.1960139 1.8262805 -0.75964022
-1.6938552 1.7267715 -0.76541132
-1.2426741 1.723719 -0.81626427
-0.77344763 1.7576349 -0.83707702
3.9149361 1.8438058 -0.90951949
4.2282901 1.7327732 -0.92275399
4.7446284 1.7292747 -0.921839
5.198339 1.8321784 -0.91616511
5.7403646 1.7398913 -0.96184975
6.2631207 1.7677016 -0.95772833
6.7412462 1.7775034 -0.96854037
7.1548376 1.8580539 -0.93989217
7.6888371 1.9264865 -0.92110473
8.4083471 1.6393257 -0.93080151
9.3255682 1.6030771 -0.93730569
10.254918 1.666163 -0.89893508
11.374757 1.8101864 -0.83729964
11.539389 1.6547773 -0.87246472
13.108802 1.8807656 -0.80457622
15.206293 1.9643869 -0.72341067
-4.6917276 2.2632389 -0.52696705
-4.2251039 2.2167084 -0.6071102
-3.7340269 2.2645471 -0.64076948
-3.2805159 2.2606397 -0.71465433
-2.7482073 2.2461114 -0.74660492
-2.2555408 2.2587354 -0.7514047
-1.7299163 2.2997735 -0.75356799
-1.290736 2.1653733 -0.78185338
-0.70983571 2.2968335 -0.76704955
-0.30223545 2.325249 -0.78262812
3.4435461 2.4572122 -0.82666671
3.7870102 2.2682667 -0.86983472
4.2322302 2.2553461 -0.87291008
4.7123675 2.2327821 -0.86411238
5.2864642 2.2468262 -0.89087731
5.728991 2.2000699 -0.90114754
6.1142159 2.2147999 -0.90411061
6.553359 2.3018665 -0.90198302
7.0931921 2.313458 -0.90711737
7.6599307 2.313648 -0.9017505
8.346446 2.2103143 -0.89381564
9.1838446 2.2599006 -0.87961793
10.357121 2.4283156 -0.87712348
11.078138 2.4654346 -0.53048766
13.23793 2.1001358 -0.80348533
15.395576 2.1049733 -0.73052973
15.693893 2.2801433 -0.74557149
16.032078 2.3839383 -0.77014363
-3.5338478 2.5867958 -0.58027852
-3.1944194 2.6102588 -0.59096491
-2.7398193 2.7135074 -0.62835902
-2.3083737 2.7307618 -0.65918803
-1.8042719 2.6567805 -0.69198334
-1.1964697 2.8468831 -0.67655975
-0.73434103 2.7103047 -0.70823324
-0.21647739 2.7445705 -0.7252664
0.17486323 2.7661004 -0.73542643
0.60171789 2.9201403 -0.71103525
2.4642923 2.8983693 -0.6978296
2.8106012 2.8753202 -0.73861206
3.224407 2.7940555 -0.7853955
3.742826 2.7172832 -0.80163199
4.246521 2.724632 -0.79353124
4.7370663 2.7882249 -0.79751062
5.2421365 2.7256999 -0.83275586
5.7336712 2.6837881 -0.84608561
6.3654308 2.8809192 -0.85656673
6.5013051 2.5111246 -0.9000625
7.0806546 2.6250594 -0.88633096
7.5490355 2.7446494 -0.85746193
8.1170216 2.7922313 -0.81655717
9.1537285 2.8144975 -0.85042834
9.9083242 2.9496114 -0.77730471
10.184782 2.6142106 -0.83875507
10.999851 2.60794 -0.51186895
11.331921 2.7087104 -0.76186651
11.555088 2.5653017 -0.82343441
12.164488 2.7735562 -0.640616
17.421352 2.6143401 -0.50984353
18.199476 2.7630737 -0.55493051
-1.5582643 3.0538008 -0.56430733
-1.2777418 3.0797091 -0.57981825
-0.74130291 3.209043 -0.61831313
-0.32726806 3.2808521 -0.63004422
0.204109 3.2846084 -0.65295666
0.76996106 3.1224906 -0.69086236
1.316678 3.2406328 -0.68138105
1.5759008 3.1862841 -0.68288124
2.4979913 3.0288489 -0.68590093
2.7625492 3.2286732 -0.68539876
3.2142518 3.2375314 -0.71423644
3.7544532 3.2486539 -0.72708291
4.2213349 3.2347138 -0.70207769
4.6915159 3.2511423 -0.71159291
5.1902003 3.2252028 -0.7443803
5.7738791 3.2783539 -0.76539701
6.3280053 3.2683799 -0.80097526
6.8161006 3.2001383 -0.83903879
7.3723445 3.3535764 -0.80707282
7.5306797 3.4210896 -0.85723466
8.1373615 3.0536277 -0.8263225
8.9509039 3.1809435 -0.78329223
9.0350809 3.3152733 -0.81016898
9.7837095 3.3002713 -0.72896338
10.778914 3.3005016 -0.67347217
11.216459 3.2699561 -0.61555129
11.539783 3.3323083 -0.53285867
12.639147 3.1025975 -0.67649496
15.685986 3.4129772 -0.6783368
-0.21680143 3.6143732 -0.50341916
0.26736963 3.6251621 -0.57151389
0.88924128 3.6417735 -0.57786399
1.2790821 3.7158105 -0.57666689
1.5944115 3.7710197 -0.56028438
2.8497813 3.7012513 -0.62709534
3.2683215 3.7104433 -0.64067453
3.6854315 3.8116634 -0.62356716
4.2400994 3.6832774 -0.65680802
4.7264905 3.7673934 -0.6411947
5.2184486 3.8202934 -0.63711059
5.6675925 3.5723541 -0.72156429
6.1043968 3.7756021 -0.70918906
6.9355578 3.7655454 -0.75336879
7.1960106 3.7267632 -0.80331868
7.8981872 3.6417732 -0.7868579
8.1906786 3.7460797 -0.82023233
8.9011526 3.937408 -0.75159031
9.7883568 3.5945137 -0.72792083
10.37947 3.719986 -0.59066314
10.633336 3.7795808 -0.6178025
11.892791 3.9380467 -0.50327438
15.728259 3.6067367 -0.66906261
2.9030952 4.0628619 -0.58748752
3.3417525 4.2019782 -0.55504334
3.7983818 4.2392287 -0.54706478
4.1476722 4.2706637 -0.54533368
4.8221474 4.2942643 -0.57858759
5.2274137 4.1900282 -0.5598259
5.7615485 4.0413423 -0.65067756
6.1218719 4.2072906 -0.60773081
6.7369909 4.1903033 -0.67886603
7.1494274 4.4088359 -0.62936914
7.7179589 4.1500325 -0.75550956
8.832016 4.164834 -0.75178146
9.1830111 4.2026353 -0.67362183
9.749383 4.3733935 -0.70044899
11.93992 4.0331521 -0.50388932
12.246139 4.0824418 -0.5357706
19.780912 4.2775121 -0.57689649
20.613373 4.3899374 -0.62984151
3.8662727 4.5261412 -0.50769866
7.2907286 4.5274982 -0.53687382
8.4718685 4.6796541 -0.71539801
8.7376499 4.735373 -0.667247
9.2176018 4.8781338 -0.63170791
10.698801 4.805325 -0.59193164
12.43598 4.6109562 -0.57520533
20.749046 4.5280809 -0.62965035
7.8369541 5.0288234 -0.61145651
8.9035034 5.4681101 -0.58396614
12.077038 5.3739815 -0.50339437
8.6765337 5.5600495 -0.55060136
-24.672842 -12.163741 -0.45077929
-25.077837 -11.898309 -0.41170868
-24.821655 -11.979835 -0.44774145
-9.4157734 -7.1053457 -0.11832263
-9.1493759 -6.8035526 -0.094391592
-8.8232012 -6.7053142 -0.30673134
-10.818893 -6.4388018 -0.3977775
-10.157486 -6.0599198 -0.34962064
-16.981106 -5.9824147 -0.034351297
-10.144534 -5.8966022 -0.33437431
-9.6305323 -5.7120113 -0.0086834421
-10.710214 -5.3280811 -0.25194472
-10.376577 -5.4201446 -0.2717801
-9.5305977 -5.4943552 -0.28503504
-8.7209425 -5.3791828 -0.25807065
-5.4135294 -4.5714741 -0.49659044
-8.4120903 -4.1395826 -0.33119592
-4.5761242 -2.2239358 -0.3355363
-4.3700314 -2.2177405 -0.256744
-3.9207706 -2.067534 -0.41474718
-2.5151885 -2.1633072 -0.29709831
-2.4781528 -2.10606 -0.28512684
-15.494515 -1.9007056 -0.026230399
-3.6985614 -1.8865452 -0.49659348
-3.1980371 -1.6565447 -0.40060329
-2.9224613 -1.5830381 -0.4840419
-0.70894587 -0.065901637 -0.27902755
-0.48921931 -0.023698479 -0.00050901994
-0.71230304 0.18785335 -0.24572346
-0.13117647 0.29670358 -0.26590627
0.056465723 0.31275994 -0.37572312
-0.71194774 0.60418826 -0.20068975
-0.063864291 0.59710824 -0.46765339
-5.902894 1.4150833 -0.2646482
-4.5537081 1.2899166 -0.19476916
-4.4096417 1.2816572 -0.24886261
-3.774514 1.3587744 -0.35744253
-3.3813581 1.2315183 -0.26631302
-6.194612 1.8774614 -0.19749525
-5.746139 1.8782225 -0.2951923
-5.202457 1.7754315 -0.30248973
-4.6466737 1.6215073 -0.2531662
-4.094646 1.5871961 -0.41876915
1.7966135 1.9263971 -0.10446848
-5.0020037 2.2284827 -0.26568225
-4.7240839 2.2804031 -0.23731755
-4.1616364 2.3885522 -0.19194351
-3.8422983 2.4016287 -0.34722474
1.9032036 2.0284734 -0.12244298
2.0126162 2.0385499 -0.11809772
-3.6531625 2.5749974 -0.243277
-3.2164094 2.6644897 -0.25174111
-2.6601837 2.8430364 -0.22692406
-2.4515533 2.7995608 -0.40930247
-1.2789241 2.9246094 -0.25628954
10.987737 2.612792 -0.28021508
12.118543 2.883872 -0.37065655
-1.6643535 3.1076334 -0.25516745
-1.2047517 3.2342873 -0.22960261
-0.70140231 3.3613107 -0.26113516
-0.45280048 3.4727137 -0.22626977
0.47781789 3.4955127 -0.35038081
-6.9029503 3.8727031 -0.012830747
-0.19936617 3.5623968 -0.22606224
0.22487789 3.6641061 -0.236405
0.85066694 3.7858133 -0.26107436
1.2512102 3.9138546 -0.2761282
1.6325245 3.9271834 -0.31082451
11.148803 3.9323502 -0.37429905
12.318341 3.6892025 -0.33837777
13.415768 3.8179796 -0.43432045
17.217646 3.5745237 -0.44025379
-6.9499483 4.0599947 -0.0046748105
-5.5511808 4.3908567 -0.051916804
-5.4589157 4.2995982 -0.026028
1.4633106 4.019877 -0.25039569
1.5825014 4.0382128 -0.2311005
3.979593 4.4379334 -0.49667445
4.0327415 4.3892226 -0.49661517
5.4289479 4.2387018 -0.4251489
5.6588306 4.4421129 -0.3877278
6.2087598 4.3257108 -0.35529605
6.8651528 4.3978791 -0.44359666
7.1263671 4.252439 -0.48432887
9.2502165 4.3220797 -0.41001767
11.007358 4.0237613 -0.4384703
12.600944 4.4932394 -0.27811456
13.241428 4.3470988 -0.3432546
13.868907 4.2308874 -0.45210588
14.08689 4.2592816 -0.31679535
20.403723 4.1931491 -0.1793773
-5.589211 4.5706725 -0.047324602
-4.2251058 4.9159989 -0.048898339
3.4104159 4.8235602 -0.34043145
3.6917925 4.7545314 -0.40566239
4.2449794 4.7921743 -0.42386636
4.6647191 4.8317518 -0.40430212
5.1819272 4.6504116 -0.33623603
5.874814 4.797122 -0.25641772
6.1753793 4.7618566 -0.21027614
6.6875758 4.7573867 -0.16551647
7.219018 4.6370416 -0.32157475
10.643346 4.8347983 -0.24255291
11.428158 4.9644613 -0.40837708
12.355982 4.5225425 -0.29678848
12.597375 4.5033464 -0.31991142
13.166405 4.5357194 -0.35577238
13.627688 4.9059162 -0.39330184
17.826498 4.975965 -0.38520807
21.461037 4.6644497 -0.19606
21.523533 4.8258266 -0.18669394
23.079807 4.7461028 -0.27164802
-4.2555032 5.1634893 -0.058328621
3.267868 5.2045975 -0.20735022
3.7623186 5.1707835 -0.24426967
4.34935 5.1773791 -0.28586295
4.6822267 5.2616649 -0.17420997
5.4642572 5.0342402 -0.1394026
5.708024 5.2041035 -0.071572654
8.7355185 5.4566464 -0.14408198
9.4116716 5.1335025 -0.44270542
9.6963425 5.1188774 -0.43368885
11.396576 5.1678157 -0.41290742
11.706644 5.2635345 -0.40204424
13.96229 5.1653051 -0.41048294
15.244063 5.2562571 -0.15307657
15.71883 5.3594751 -0.18426275
16.573809 5.0394716 -0.2909286
17.783054 5.0663853 -0.37597379
18.360092 5.0391798 -0.41945624
20.131758 5.4930162 -0.066779353
22.814005 5.2920461 -0.21582408
-4.1760383 5.7421484 -0.031429794
-3.0167983 5.8604703 -0.089815326
-2.9898572 5.9596434 -0.088159211
3.3543417 5.7230072 -0.14972861
3.77598 5.5925884 -0.1636745
4.1440234 5.5352654 -0.18950057
4.7690845 5.7556863 -0.11437487
8.0658808 5.9109049 -0.077614561
8.852376 5.6710091 -0.3378436
9.2675838 5.7954974 -0.32317498
9.6042709 5.8686695 -0.0021874243
10.76433 5.835855 -0.26920676
11.084967 5.845046 -0.12830518
11.582116 5.50423 -0.44507837
12.355276 5.730299 -0.22816247
12.609117 5.693078 -0.2533167
17.324106 5.9237213 -0.28845239
20.430609 5.928205 -0.049657717
24.668552 5.6246767 -0.28365207
-5.8368936 6.3179874 -0.0023792449
-4.0852265 6.2172122 -0.022909906
-2.967433 6.0777812 -0.084099688
-1.6603473 6.1976976 -0.1078818
0.25238824 6.4859962 -0.11773875
3.9925239 6.497786 -0.11700208
4.2658277 6.3505015 -0.12511747
4.5728736 6.1381531 -0.13217871
8.4087296 6.0272255 -0.10811397
9.9251976 6.1557894 -0.13503462
10.116262 6.2278094 -0.27547833
11.40253 6.0767117 -0.14683758
13.409154 6.0695195 -0.013983808
13.683864 6.050199 -0.033463188
16.745258 6.1781459 -0.23280104
17.151409 6.0918512 -0.23732212
20.339981 6.1365356 -0.030120291
21.941772 6.4842124 -0.083809406
-4.1755819 6.6724234 -0.033274345
-1.2330488 6.7584701 -0.09593787
0.32780641 6.5332346 -0.11779308
0.7829839 6.7523012 -0.1168187
1.2134053 6.8915124 -0.11535498
3.7013423 6.6668115 -0.11668431
4.3457618 6.8921623 -0.0052684434
10.286963 6.5479198 -0.030047243
24.787962 6.7228508 -0.2071403
-4.1206918 7.2679501 -0.028031271
-2.4685867 7.4453006 -0.068017483
1.7418957 7.0299196 -0.10963656
4.299675 7.0849428 -0.01430802
21.420141 7.2603478 -0.0031251796
-4.0998077 7.5726452 -0.021397233
-2.3929207 7.5896683 -0.065403327
-0.019331664 7.7968202 -0.080436483
0.060899682 7.8768897 -0.081787221
-2.0292671 8.1607952 -0.049206965
-1.9369868 8.3444319 -0.050617009
0.42747915 8.0982304 -0.080097355
0.81412047 8.2532558 -0.077378392
1.202738 8.4044018 -0.076979846
1.5153931 8.4461908 -0.072630361
4.2664232 8.1705084 -0.078736924
-1.7295004 8.6762161 -0.042934019
1.7957199 8.5394268 -0.06477803
-3.717196 9.6505356 -0.0015638008
-0.41128799 9.9734993 -0.027962215
-0.33059072 10.012351 -0.025971096
0.17673424 10.345091 -0.020278882
4.9586582 10.435404 -0.0020302958
5.1037502 10.349909 -0.0026781387
0.76319033 10.654144 -0.01746041
1.2444426 10.8689 -0.015522433
1.5108401 10.896354 -0.011219086
1.7501286 11.047313 -0.00082149607
-35.105446 -30.873928 0.30778912
-25.126165 -12.158932 0.22128686
-24.927071 -12.2675 0.21843214
-9.2852554 -7.2754321 0.49215591
-9.2991791 -6.9109163 0.20546854
-8.7570496 -6.7593956 0.40125334
-10.367425 -6.0073543 0.28615344
-16.949818 -5.9107151 0.0049126782
-10.757132 -5.5853672 0.23182063
-7.1932931 -3.6818893 0.081197925
1.3722305 5.8329144 -0.23581396
-10.876717 -5.3895006 0.30161744
-9.966876 -5.3419766 0.035493221
3.7810171 3.2352931 -0.25508538
-7.6745434 -2.6023192 0.2964277
-7.403235 -2.5046368 0.48326242
-22.009773 -2.4979095 0.35822025
-15.388941 -2.0968964 0.35586464
-7.8365083 -2.4560935 0.44247729
-7.4165139 -2.3919241 0.44249663
-5.771543 -1.8591678 0.29962146
-5.0102139 -1.6768582 0.32477218
-17.224218 -0.84559131 0.41291949
-16.937893 -0.66339898 0.42863512
-6.3316183 -0.56485093 0.4384234
-12.329496 -0.29071459 0.4509244
-7.2451134 -0.088410884 0.45667204
-6.2653322 -0.46875486 0.35664091
-5.8939514 -0.39128658 0.27785045
-5.425055 -0.29247591 0.25464994
-0.56613934 -0.052065242 0.32409015
-0.43079931 -0.04145414 0.22383411
-0.60154659 0.22473866 0.26477534
-0.35839549 0.17381346 0.12291051
-0.65868562 0.64114106 0.22985452
1.128698 0.0080964537 0.39414999
1.5121157 0.59850353 0.49859163
-6.1174121 1.3557972 0.31308416
-5.6997142 1.252714 0.29660934
-3.5372427 1.398104 0.1191413
-3.4507518 1.2848033 0.15633583
1.912667 1.49405 0.17783444
-13.377281 1.8759941 0.3355563
-10.503921 1.8644624 0.10698874
-7.2669072 1.5667386 0.008889256
-6.228241 1.8651626 0.10289514
-5.158257 1.7174927 0.29263207
1.4530772 1.9562625 0.03367253
1.7757907 1.8471087 0.30903918
2.0095606 1.7560897 0.23831113
-10.783637 2.4506607 0.14860219
-4.7056804 2.3130715 0.087522879
-4.1215706 2.4256778 0.019340608
-3.9460194 2.4281857 0.018292161
1.8919276 2.0318093 0.14451733
2.0207863 2.1224847 0.26830101
-14.056835 2.933898 0.42129487
-11.025455 2.8379407 0.17240722
-10.909573 2.6843729 0.16382001
-4.5459375 2.6128628 0.11247128
-3.6877906 2.5828199 0.051672798
-3.3180523 2.7313404 0.073633179
-2.6659207 2.8437853 0.068772368
-1.3375294 2.9551671 0.048602875
-14.271604 3.2481432 0.44595981
-8.5781689 3.242075 0.053329643
-1.7316803 3.2259245 0.068880051
-1.204217 3.3288555 0.1288989
-0.76177835 3.4112425 0.053829081
-0.45073611 3.4562681 0.073121004
-11.580873 3.8691108 0.22494993
-9.0000906 3.977345 0.069215238
-8.9142227 3.831104 0.06640286
-1.5330455 3.5219445 0.11418848
-1.0263305 3.5351958 0.4431693
-0.78465992 3.6737807 0.16945016
-0.17069434 3.6092083 0.056108374
0.17863566 3.814528 0.11238196
0.80660993 3.874552 0.15335482
1.2493961 3.9342215 0.053729456
1.5770812 3.9393909 0.090037979
5.3145208 3.974788 0.17605264
-11.72768 4.1497059 0.2426604
-9.065712 4.1717377 0.089713894
-8.9863586 4.1028509 0.09380281
-6.9466705 4.3102751 0.038340792
-1.0727321 4.192802 0.26095846
-0.94467425 4.1834869 0.21971297
0.25057545 4.002861 0.27849895
0.73575729 4.0297284 0.13616125
1.4275554 4.0142837 0.075717062
1.6176447 4.0612741 0.047728434
5.370379 4.1341529 0.23013745
5.6135864 4.3077669 0.280873
6.3931084 4.4455261 0.28798863
6.5407591 4.4690304 0.20392494
-12.17786 4.7934165 0.26216021
-9.3910456 4.8145509 0.10725649
-7.0199566 4.5196586 0.045366503
1.631528 4.5802975 0.12108877
4.8877335 4.9897666 0.18738963
6.1663017 4.7600975 0.21731625
6.6487575 4.6992493 0.13639316
10.493518 4.8257136 0.15223734
-12.562557 5.3301601 0.30087408
-12.381154 5.1104736 0.29097879
-9.5383711 5.2880387 0.15298069
-9.4816723 5.2118945 0.15608071
-7.331944 5.2817464 0.055901658
4.8203197 5.1809363 0.11837987
5.7789893 5.266017 0.15493113
6.1696143 5.3580065 0.29823834
18.136122 5.2322121 0.012901696
-12.718079 5.5854702 0.32185099
-9.6522055 5.6311646 0.18448183
-7.5330825 5.6190305 0.042946674
-5.7233982 5.962759 0.016402863
4.8023748 5.6746316 0.25488713
5.3139448 5.791595 0.37325475
5.7274895 5.7162199 0.31128535
6.1901913 5.735815 0.40246516
9.3383379 5.8473549 0.20971137
9.6687746 5.9118457 0.35900402
11.262625 5.9517879 0.12075786
12.296332 5.678771 0.14715081
13.283752 5.9754996 0.036697369
13.697224 5.9923286 0.011344694
-13.239104 6.2172537 0.33372813
-10.131883 6.4862943 0.21572381
-5.7656164 6.223794 0.018165257
4.480258 6.4469886 0.10908487
4.5767193 6.2488017 0.2551114
6.7460485 6.286293 0.38993305
8.4573517 6.1395774 0.20232087
8.6214552 6.1605124 0.29681712
9.3432341 6.0523524 0.25324088
9.7961435 6.0078888 0.44825816
11.280264 6.1559343 0.26069903
11.68854 6.0983701 0.37063244
12.045526 6.2573662 0.085098624
13.246181 6.1420879 0.032125495
13.830075 6.0127907 0.0039795749
14.182903 6.2919493 0.30301276
18.790211 6.188602 0.099199124
22.097826 6.263803 0.39049158
-13.642893 6.7502022 0.369645
-13.488589 6.5146899 0.34761178
-10.535036 6.9637356 0.1905826
-10.307492 6.7676744 0.21794401
-5.8828225 6.7229671 0.014572886
4.3997121 6.7476892 0.28165826
10.3706 6.6591501 0.38154477
10.560018 6.6984072 0.39446172
12.484576 6.6274371 0.36666232
14.39459 6.6092196 0.27831432
14.693759 6.7975287 0.29427987
19.277199 6.8794665 0.086169019
20.3111 6.8582263 0.056264289
-14.042193 7.4442711 0.44770896
-13.830861 7.1950889 0.43567976
-10.679897 7.2455931 0.20120665
-10.416304 7.0678129 0.23899776
-5.8822684 7.2393408 0.041927878
4.2984033 7.0784216 0.33684692
11.459993 7.2988214 0.44943133
19.694069 7.0369887 0.064093202
21.384169 7.3175564 0.0025228076
21.635778 7.3520579 0.40355441
31.824694 7.1145811 0.193737
-14.295753 7.7226586 0.46042919
-10.815235 7.5058718 0.21084464
-8.1217852 7.8061819 0.13904607
-5.7748489 7.7395411 0.058263239
21.637314 7.581965 0.080943435
22.846834 7.5573597 0.47240233
-8.3082771 8.2261229 0.13210011
-6.09128 8.4055557 0.042158626
-8.5875015 8.7858009 0.12441684
-8.4716454 8.5524178 0.12200358
-6.1062813 8.5794411 0.045024328
-15.572813 9.433053 0.4999212
-8.6803083 9.3360586 0.17133437
-6.1919241 9.3688593 0.045578443
26.332199 9.0918055 0.49897319
-8.8370705 9.7333813 0.17821911
-6.1983962 9.7427559 0.057136264
-3.6474576 9.8765526 0.0018345825
-9.0503206 10.172114 0.18280789
-8.8116875 10.282654 0.19583301
-6.1952519 10.133057 0.070072092
12.208532 10.030847 0.26327401
-9.0422382 10.983634 0.20730899
-8.9213772 10.717689 0.20455247
-6.2148867 10.913369 0.072206706
-5.9025102 10.519859 0.10391438
-3.1938932 10.850327 0.027395144
-9.1443672 11.203806 0.20940316
-6.2220197 11.016699 0.073304728
-3.1103613 11.185248 0.025476856
1.9004819 11.067148 0.00082736998
2.0386386 11.082636 0.0022513531
-13.651093 11.811098 0.36515868
-13.402603 11.555008 0.36274374
-2.8381059 11.816867 0.043917745
-13.790469 12.305358 0.37336579
-9.9110098 12.340251 0.19464228
-2.7494299 12.028831 0.045513663
-13.756691 12.742902 0.38459593
-10.085265 12.794735 0.20115334
-13.463573 13.399908 0.47459161
-10.258438 13.197616 0.20554918
-13.374998 13.585917 0.49062333
-6.3721108 13.959694 0.10853338
-1.2548612 13.936872 0.068193689
-10.735245 14.448146 0.2071635
-6.3641014 14.259933 0.11247569
-1.1290563 14.071337 0.070403084
-0.58970332 14.464991 0.082226306
6.4503999 14.199532 0.14253053
6.5575066 14.07177 0.14260548
-10.816867 14.747774 0.21309502
-6.3577499 14.717832 0.11783147
-0.53104019 14.500955 0.083500639
-0.34028071 14.597994 0.08785446
0.31515816 14.775467 0.099635117
0.60005355 14.928473 0.10421719
-10.932461 15.294228 0.23190364
0.79602605 15.193374 0.10430657
1.2180099 15.180774 0.11220438
1.7840955 15.414144 0.13213842
2.150001 15.47004 0.14222017
-11.084908 15.730239 0.24288861
1.9150808 15.503047 0.1373096
3.1298437 15.634186 0.1407287
-11.425886 16.345024 0.24906757
-11.507316 16.590988 0.25289401
-11.49177 16.852678 0.26340848
-6.0323725 16.702475 0.16370869
-5.9679546 16.938232 0.16879438
-11.138656 17.449675 0.31457484
-6.0772743 17.307636 0.15763663
-5.8978839 17.220989 0.17430672
-11.216575 17.824394 0.31044304
-6.0189934 17.632229 0.16331795
-5.9332113 17.805542 0.17098606
-11.166411 18.229683 0.32969281
-5.9056954 18.122181 0.17303722
-11.108519 18.647863 0.36408743
-10.977488 18.952391 0.38417768
-5.6685405 18.783688 0.20867194
-10.878327 19.149689 0.39623278
-5.5652347 19.22965 0.21599661
-10.206935 20.734802 0.4641932
-9.9698162 20.865622 0.48166287
-10.021544 21.232605 0.49008888
-9.9739361 21.426769 0.4986856
-3.1471164 23.182945 0.30818024
-2.9594178 23.416233 0.31517798
-2.871855 23.51762 0.3183696
-2.0901599 24.402988 0.34496957
-1.9932839 24.492132 0.34806973
-1.7432127 24.714443 0.35583127
-1.4462732 24.896709 0.3648791
-0.91914958 24.945248 0.3691293
-0.63140756 25.06109 0.37794337
-0.28900227 25.176365 0.38720283
0.047078863 25.300369 0.39565545
1.4824719 25.340879 0.42684472
-0.037873909 25.716021 0.39891523
0.24972756 25.867443 0.40514681
0.78237742 25.61614 0.41217226
1.2269714 25.568251 0.4209004
0.68498814 26.058575 0.41415852
2.2391198 26.190229 0.47449386
2.6875496 26.26206 0.48256609
-41.504353 -32.704399 0.54554033
-9.0794544 -7.239078 0.79260808
-8.9710751 -7.0691423 0.79284763
-8.8231268 -6.7033095 0.68878216
-0.24181271 1.8210299 -0.13527744
-1.2789241 2.9246094 -0.25628954
-11.114826 -5.6945968 0.74278915
-10.796313 -5.6518812 0.66435587
-4.8153396 2.8927791 0.35557568
6.977488 6.4829087 0.2825371
7.1647396 5.6823082 0.11262223
-11.017996 -5.4794364 0.68884206
-10.915318 -5.3698816 0.77106571
-10.221458 -5.4115171 0.96370232
-9.9172392 -5.1809859 0.94328582
12.600944 4.4932394 -0.27811456
5.5263581 0.62649679 0.14151412
-9.4869423 -4.9149327 0.94022834
-8.6871548 -4.7240477 0.88697404
-8.2447929 -2.7893298 0.70691133
-7.7618518 -2.6120846 0.79599243
-7.4562993 -2.5954854 0.91668868
-15.40086 -2.1337712 0.75401175
-8.1030359 -2.4408407 0.73783267
-7.6581082 -2.4179425 0.83584839
-7.4197927 -2.3893371 0.7031045
-7.5821757 6.7945266 0.099473998
-6.3681679 -1.0265794 0.86698753
-9.4810629 -0.93460917 0.68360192
-7.6878767 -0.69453722 0.75953948
-7.3125272 -0.70362842 0.84745747
-6.3763404 -0.60512608 0.66819537
-8.9174519 -0.26303563 0.93409026
-8.4575577 -0.19729772 0.91718161
-7.6248899 -0.11185536 0.6702854
-6.0404072 -0.32090116 0.67412668
-1.2700497 -0.11654925 0.84617132
-0.56473005 -0.032279454 0.64139265
-0.49037707 -0.0090813041 0.594464
-7.0567703 0.28467405 0.85092664
-6.8070273 0.2543765 0.76293635
-5.2188721 0.22822365 0.79786575
-4.8155746 0.23910491 0.77255863
-1.2578059 0.16897026 0.82224363
-0.57772017 0.15232261 0.63696462
-0.44705832 0.080568425 0.61463213
-0.5464322 0.62846124 0.56081772
-0.39299834 0.68715435 0.66043556
1.5401187 0.60198605 0.50031239
-6.6095109 1.35225 0.85815984
-6.2376156 1.2968692 0.68090492
-5.4703846 1.3427695 0.59770489
-4.7844982 1.0554929 0.71552116
-6.5566339 1.7695916 0.83483577
-6.4726143 1.8293399 0.83837962
-5.1157246 1.6533267 0.67936009
-4.9433923 1.6103746 0.77445734
1.8409089 1.9009681 0.62773705
1.796712 2.0412905 0.62569094
2.0097778 2.070044 0.54790729
-2.3271308 2.5369244 0.99710798
-1.0319096 3.4044383 0.82344866
-0.91934991 3.4268267 0.82985789
-1.0496752 3.5913041 0.6432519
-0.7584607 3.6836634 0.8433432
0.25083148 3.9969423 0.53221101
0.73941356 3.936655 0.81015509
-23.131756 4.4294062 0.97014725
-21.901405 4.0630817 0.92992336
0.75399983 4.0142202 0.73780745
5.4239521 4.1064577 0.53535402
5.5689535 4.3694906 0.58583212
-23.288464 4.5640869 0.98362136
-15.849583 4.8476419 0.54473042
6.662921 4.6819601 0.50645059
-16.544985 5.4892297 0.58953917
-16.216818 5.2093225 0.5704729
-16.591064 5.5557346 0.5946902
4.8157749 5.6581984 0.73993969
5.2922916 5.772727 0.74395633
5.5526657 5.8633628 0.74419081
9.7219038 5.9660864 0.79682946
11.422722 5.9882669 0.63916266
-17.696447 6.3825617 0.62317348
-17.410917 6.1479034 0.60782498
4.496345 6.4862852 0.85269547
4.578135 6.2563043 0.76354587
6.7416744 6.2785521 0.75046867
7.0130491 6.3688502 0.75193691
9.1470146 6.4478168 0.50244445
10.749505 6.4766712 0.68975276
11.201992 6.1531639 0.78505599
11.548867 6.1512494 0.6474449
14.157042 6.0594568 0.62767398
14.639424 6.3342619 0.63750291
20.002113 6.4452415 0.5270735
-18.161352 6.8301096 0.66266346
-17.894783 6.6383314 0.6549502
4.4044495 6.7672701 0.79726577
9.0939026 6.5596495 0.50970703
12.390658 6.6154222 0.66011554
14.828643 6.8059249 0.76601082
15.194255 6.7547565 0.79551786
20.148829 6.6422338 0.53893638
-18.193378 7.1963968 0.70777822
4.3006649 7.0722904 0.78753549
21.678509 7.3964071 0.56221223
22.147261 7.0641866 0.52595723
-18.025749 7.9266844 0.75727504
-17.990517 7.7848082 0.74513334
21.482761 7.5572653 0.57889783
21.610886 7.6062217 0.5320186
22.893696 7.5601988 0.54726011
-18.063833 8.2673101 0.78739232
-18.065937 8.7377615 0.86959714
-17.928917 8.892581 0.90589547
19.92625 8.7735262 0.62535894
24.473286 8.9098234 0.53283459
24.714584 8.7237663 0.55401301
-17.805027 9.1926346 0.9352752
-15.566152 9.3334913 0.53094447
-15.446782 9.4168911 0.55184925
26.515327 9.2420025 0.50562161
-15.633055 9.815073 0.54434347
-15.455369 9.5509806 0.56222063
11.585402 9.7596645 0.60181016
-17.193346 10.288021 0.99230874
-16.914423 10.204374 0.99052
-15.520618 10.038059 0.55102187
-15.496035 10.086299 0.55592775
31.079147 11.101561 0.52885091
32.887402 11.01862 0.58645678
-14.620777 12.441963 0.82047665
-14.636748 12.796668 0.83628929
-14.358877 12.821684 0.85942137
-14.704373 13.22643 0.8426857
-14.459149 13.026383 0.84985459
-14.772601 13.665439 0.86520666
-13.265178 13.795222 0.50907958
-14.206299 14.182502 0.96952003
-13.034727 14.203429 0.5314635
-12.9355 14.351041 0.54522026
-14.188252 14.564586 0.99917567
-12.795979 14.726097 0.57238448
-12.576311 15.201715 0.6008606
-12.47408 15.435715 0.61951017
-12.410297 15.584009 0.63120365
-12.298177 16.345274 0.66247559
-11.522072 16.452675 0.72417635
-12.200064 16.749229 0.69835299
-11.62819 16.868727 0.74169821
-11.398772 16.680971 0.7426728
-12.127105 17.244171 0.73774379
-11.253562 17.220676 0.7630198
-11.782629 17.754776 0.76569134
-11.643089 18.269352 0.81359321
-11.598788 18.618628 0.8304643
-11.437411 18.861553 0.86964405
-11.291719 19.239712 0.90136373
-11.209339 19.64378 0.92594999
-10.038954 20.110401 0.981534
-9.1224241 23.753252 0.61814952
-9.0242558 24.062935 0.62856597
-8.9355497 24.303164 0.64157641
-8.8190727 24.737352 0.65427041
-8.6302757 25.89823 0.72089005
-8.6637554 26.201296 0.72742182
-8.8479633 27.343121 0.74937558
-8.6863823 27.740158 0.76662457
-5.6335349 33.712742 0.99513054
-34.899826 -32.056671 1.3845649
-9.350914 -7.2125874 1.1221546
-8.8330679 -6.7746387 1.21278
-18.740051 -6.4762239 1.4286975
-17.856253 -6.2920189 1.3805823
13.868907 4.2308874 -0.45210588
-11.288787 -5.6471667 1.2919741
-10.882382 -5.5646391 1.0123013
-8.6311245 3.0874786 0.12384274
-2.644989 4.72575 -0.12625626
-25.660107 -5.2110553 1.4432982
-25.497658 -5.474298 1.415031
-11.059406 -5.4803615 1.0151176
-10.702026 -5.407814 1.1128483
-10.15226 -5.3245497 1.2581118
-9.8276424 -5.273344 1.2444217
-8.0066547 3.3074818 0.22860496
5.8483129 8.5375185 0.22454277
-9.8015575 -4.9825959 1.2415301
-9.1037178 -4.7871733 1.4783074
-8.8863831 -4.5883899 1.1859225
-8.7249804 -4.3514609 1.3224947
-8.4498653 -4.4453616 1.4076596
-9.3981972 -3.0958576 1.2930773
-8.1818066 -2.6658673 1.3473303
-7.751009 -2.6267669 1.2870573
-7.4296737 -2.5913384 1.1777709
-2.9506397 -2.6838968 1.074177
-2.4163389 -2.6139793 1.0812488
-15.693233 -2.036186 1.1755505
-7.7018065 -2.4331136 1.1715696
-7.4522514 -2.3861589 1.3739626
-2.6314166 -2.4980433 1.0949903
-2.4163063 -2.447511 1.0769908
-9.4469471 -1.8872628 1.1273913
-7.4930644 -1.5894001 1.4384602
-3.1560287 -1.7955835 1.1674188
-9.1661835 -1.0814381 1.4192146
-7.2351527 -1.3248096 1.2917161
-6.1699457 -1.0594804 1.128106
-7.9410229 -0.75548375 1.2110138
-7.1915545 -0.79010296 1.4527552
-6.9143739 -0.74627638 1.0218089
-6.2232828 -0.56288695 1.1677876
-5.6767263 -0.62632883 1.4514534
-8.3331585 -0.15241662 1.1453532
-7.6339126 -0.19573578 1.3074454
-7.0455499 -0.042191058 1.4654022
-6.5459151 -0.06189844 1.0235435
-5.6565552 -0.034723967 1.4698718
-5.334619 -0.17182115 1.2599094
-7.0371952 0.21749105 1.3110286
-6.9764271 0.24658753 1.3074945
-6.235795 0.21235231 1.2201935
-5.2167115 0.18788679 1.2115881
-4.7054424 0.19763237 1.1092049
-4.473628 0.15419437 1.0331461
-3.6078784 0.3356601 1.3424501
-5.7035184 0.84280539 1.1822335
-4.8136711 0.71755755 1.2343285
-7.0924048 1.3698384 1.1121457
-6.7745013 1.2413518 1.2090534
-6.2564516 1.2520877 1.1389897
-5.5770998 1.0877298 1.2397145
-5.4896889 1.0560873 1.3931204
-3.5309739 1.3615935 1.3103609
-3.4498284 1.364252 1.0911566
-6.5690141 1.7536505 1.0238578
-6.3636055 1.7240415 1.010397
-5.8678403 1.620109 1.3248336
-3.3612735 1.6699512 1.4372126
-2.7635651 2.4323726 1.2415831
-2.3224494 2.4686277 1.2552698
-4.8979816 2.5266368 1.4868447
-4.2816768 2.7344682 1.3891433
-2.6212301 2.7073028 1.3494279
-2.3596003 2.5840385 1.1816015
-1.2580047 2.8341627 1.327926
-2.3214974 3.4794044 1.4790958
-1.9514176 3.1800632 1.4870825
-1.2594757 3.3723607 1.2382549
-0.92030329 3.3741889 1.2294816
-2.1958361 3.5002437 1.4662054
-0.7788474 3.7203221 1.1607447
0.74084556 3.8816762 1.2334259
0.75717658 4.0002375 1.3759054
-23.102591 4.7843623 1.0037252
-22.759102 4.8734422 1.0106893
-20.32695 5.9973936 1.0859587
4.8199615 5.6381931 1.232589
5.2811222 5.7564135 1.251983
5.5733023 5.8601298 1.2107854
-22.168793 6.3449459 1.1253417
-21.456764 6.0663347 1.0961978
-20.233112 6.1735549 1.1027036
4.4963984 6.4866691 1.2410831
4.5836844 6.2267804 1.234221
6.7663836 6.2776523 1.289108
7.0466223 6.3785324 1.2521623
-21.929665 6.8609934 1.1745405
-19.052826 6.7101874 1.1249266
4.3960204 6.7742081 1.2785363
14.751953 6.7435822 1.2001485
15.289321 6.7022443 1.2437975
4.2955694 7.0565867 1.2917161
14.218885 7.4237938 1.0991114
-21.859501 7.9028139 1.2574971
13.960852 7.5306487 1.022324
14.320814 7.6753836 1.262482
14.510012 7.883451 1.0492898
-21.701801 8.16992 1.2924129
-21.673323 8.58634 1.3423815
-21.617321 9.2560787 1.3792686
-21.588938 9.6659431 1.419879
-21.430952 9.7576199 1.4288564
-16.972588 9.9297791 1.0162586
-17.174677 10.171026 1.0345609
-16.790419 10.289221 1.0417445
-16.815613 10.542648 1.0491663
32.396347 10.796791 1.2901025
32.939896 10.976183 1.3041289
32.375122 11.161013 1.3476403
-16.249968 13.704451 1.3724039
-15.863582 13.729616 1.3682104
-14.190886 14.694715 1.0089376
-13.758045 14.95216 1.029315
-17.207375 15.262519 1.4580079
-16.90625 15.496085 1.4746333
-13.66315 15.284325 1.0572593
-17.098333 15.560756 1.4764887
-13.674172 15.640619 1.0832187
-13.657321 16.179813 1.1104496
-13.221606 16.220749 1.1290057
-13.432017 16.676186 1.1551986
-13.404518 17.448107 1.1948073
-13.381594 17.570564 1.2045795
-13.126548 18.462297 1.2967621
-13.292707 18.92794 1.3249806
-13.144872 19.44754 1.3497525
-12.997114 19.480469 1.3572465
-13.056297 19.760149 1.3753347
-12.791165 19.754694 1.4076059
-12.460334 19.80002 1.3986534
-12.925644 20.08296 1.403043
-12.76156 20.762348 1.4895985
-10.031505 20.558975 1.0049628
-9.8613949 20.531847 1.0111837
-10.011149 24.81233 1.2319158
-9.7648458 24.901087 1.24338
-9.8536787 25.256079 1.2556027
-9.7333107 25.6901 1.2789398
-9.4012966 25.913401 1.2990792
-9.6901731 26.10005 1.2966169
-11.244842 30.663712 1.4576252
-5.5595388 33.847061 1.0006683
-5.4836817 33.946735 1.0054734
-5.4023862 34.2901 1.0158772
-5.2360344 34.716217 1.0308944
-5.0932097 35.064339 1.0433074
-4.0994225 37.615204 1.1301997
-3.9731171 37.921967 1.1406068
-3.8530984 38.246162 1.1511459
-3.6480432 38.759396 1.1681654
-3.4380445 39.285194 1.1854684
-3.2593379 39.729385 1.2000127
-2.6414752 41.281734 1.2291559
-2.443104 41.747391 1.2441354
-2.2520232 42.297832 1.2616957
-2.0892508 42.740376 1.2754732
-1.8821447 43.244984 1.2909697
-1.6724356 43.740337 1.3062435
-1.5406362 44.085171 1.3173025
-1.4388683 44.378796 1.3256183
-1.2458587 44.687096 1.3410254
-1.1010103 45.221279 1.3576108
-0.98568588 45.48579 1.37288
-0.87556946 45.779972 1.3813739
-0.69213009 46.239426 1.3948325
-0.52249312 46.731483 1.408618
-0.33065844 47.185493 1.4220136
-0.068959855 47.642406 1.4318804
0.11117127 48.258076 1.4384764
0.30524343 48.782429 1.4533958
0.43205756 49.117401 1.4629526
0.570871 49.368237 1.4710276
0.70942289 49.724636 1.4812145
0.91782457 50.198395 1.4952098
-40.627224 -31.538464 1.7997559
-39.731289 -31.792629 1.7405256
-36.048851 -29.794102 1.6001631
0.060899682 7.8768897 -0.081787221
17.183006 4.6792269 -0.29493013
-17.970705 -5.8710713 1.8969965
-11.02734 -5.9211969 1.6525718
-10.956963 -5.7095876 1.8268414
-10.309752 -5.6704879 1.8841543
-10.037071 -5.4196239 1.861656
-9.7306395 -5.2921515 1.6210235
-5.7748489 7.7395411 0.058263239
-5.2563248 4.6072741 0.17017272
-3.0481701 3.8736277 0.070262037
-9.5527916 -4.7363186 1.8271888
-9.3141069 -4.8650775 1.6656779
-13.223305 -4.4232211 1.7316649
-11.722807 -4.1209807 1.7809373
-8.5604496 -4.3341751 1.6956079
-8.2321873 -4.2312746 1.8323512
-10.827702 -3.8863113 1.9796743
-9.1741962 -3.1317751 1.8023683
-8.4371834 -3.023453 1.9445059
-8.5446186 -2.8625143 1.8944157
-8.3136034 -2.7336705 1.8329751
-7.8016758 -2.6462038 1.7091012
-7.1837029 -2.6214607 1.7606698
-15.653751 -2.1203141 1.5718591
-8.0408802 -2.4235747 1.8523786
-7.8420305 -2.3745079 1.6481571
-7.3539906 -2.4742627 1.7954733
-8.0937872 -1.8345236 1.7840581
-7.5575624 -1.5466352 1.8707542
-7.4379625 -1.5632623 1.6910532
-6.9200296 -1.7890028 1.7480675
-9.2191982 -1.2638012 1.9229542
-8.370822 -1.0656679 1.577002
-7.2143993 -1.3510565 1.691775
-18.02463 -0.50184977 1.8821099
-8.2942495 -0.90001458 1.8129175
-6.8381171 -0.76076645 1.7111938
-5.9501491 -0.5362528 1.6771196
-17.056883 -0.20908999 1.8339295
-8.2537413 -0.2015048 1.5967461
-7.0215569 -0.19717357 1.8574795
-6.578248 -0.086954623 1.7920183
-8.4390459 0.029649049 1.9039406
-7.2486677 0.071583137 1.6159481
-6.6972399 0.1751698 1.6603462
-6.1951265 0.14843124 1.5732317
-5.8548827 0.20969133 1.7159876
-5.1441679 0.19195735 1.5839877
-5.8688869 0.81204683 1.6398642
-6.3992634 1.326793 1.7203389
-5.3606849 1.1043876 1.6361122
-7.1022277 1.7975007 1.6697376
-6.7577472 1.7025836 1.6174358
-6.1210384 1.8081388 1.7361052
-4.672226 1.9987516 1.6974583
-5.2148471 2.2459559 1.8205737
-4.7520947 2.2444303 1.6911507
-4.4854116 2.3651838 1.7180076
-3.7846045 2.2363503 1.5871624
-4.555635 2.625319 1.7693348
-4.330574 2.757653 1.6855066
-3.8851323 2.7993274 1.6314015
-2.2619891 3.3309517 1.5611056
-1.4798214 3.4923067 1.5050597
-2.5222287 3.6999192 1.6655536
-2.4043586 3.7354107 1.6238836
-1.730917 3.8657453 1.6096741
-27.403645 5.4168653 1.7715957
4.6798124 5.3359656 1.7773219
5.1584191 5.3856931 1.7192158
-27.342035 5.664402 1.7944642
-20.302794 5.9399137 1.6078881
4.8031268 5.627727 1.6658558
5.3321743 5.7690187 1.6722441
5.571353 5.8407845 1.6101302
6.3072562 5.7990618 1.7321811
6.5726814 5.926856 1.7746029
-20.270266 6.0657811 1.6199372
4.4883556 6.4656839 1.7101076
4.5760336 6.2154641 1.7418826
6.7688951 6.225244 1.6847446
7.0485501 6.3608985 1.5977242
14.908419 6.4674816 1.6296791
15.263841 6.4514422 1.6824781
-25.577942 6.987865 1.852149
-19.195087 6.5741081 1.6189024
-18.936401 6.6914873 1.624912
4.3741703 6.7885814 1.7640501
15.185846 6.678257 1.7020254
-25.488632 7.05094 1.8562558
-24.77887 7.4019279 1.873832
3.9756415 7.1558571 1.9782491
4.2826867 7.0390568 1.8043101
-24.552418 7.5829186 1.8866549
-24.055202 8.4607582 1.9324224
-23.823233 8.6732826 1.9698485
-21.175316 10.135715 1.534803
-20.936155 10.264265 1.5467286
-20.919926 10.644497 1.5847424
-20.522396 11.631737 1.6822476
-20.386486 11.857726 1.6817185
-19.586563 11.93193 1.6514534
-20.19153 12.185669 1.7022712
-20.096657 12.537649 1.7135782
-15.843104 15.283582 1.5244799
-16.142517 15.975322 1.5822347
-15.769747 15.612265 1.5558232
-15.380039 15.755602 1.5759637
-15.326286 16.459026 1.6258126
-15.415921 16.594143 1.6363817
-15.415686 17.223564 1.6931947
-15.382592 17.654585 1.7175363
-16.095003 18.625179 1.7918938
-15.579096 18.767799 1.8149482
-10.084079 20.51231 1.540772
-12.914017 21.218191 1.5225739
-13.018802 21.673111 1.5518253
-12.913694 21.795521 1.5638098
-13.008786 22.00762 1.5760102
-12.912474 22.139238 1.5883548
-12.618705 24.321144 1.7297581
-12.081186 24.107027 1.7322757
-11.805849 24.18272 1.7467846
-12.666117 24.643284 1.7513095
-10.866573 31.783936 1.5581985
-10.68063 32.251343 1.5870712
-10.542782 32.578197 1.6074345
-10.430964 32.851021 1.6242565
-10.341588 33.051796 1.6368432
-6.3070278 35.682518 1.8517842
-6.5421133 37.255489 1.9159619
-6.4780455 37.486027 1.928266
-6.3927345 37.622677 1.9369372
-6.2723684 38.106228 1.9622526
1.2077208 50.793812 1.5132843
1.4250709 51.362514 1.5292459
2.5755529 54.83025 1.6995155
2.7409403 55.458668 1.7165344
2.9462912 56.749668 1.74875
-13.304852 -6.7769256 2.2450118
15.71883 5.3594751 -0.18426275
0.81412047 8.2532558 -0.077378392
-16.827686 -5.8840523 2.2495058
-11.250114 -5.7997527 2.0745082
-10.68944 -5.6202364 2.274653
4.5728736 6.1381531 -0.13217871
-10.799227 -5.496593 2.3005433
-10.366851 -5.1553941 2.2381623
-13.767136 -4.5872254 2.3711433
-13.418686 -4.5337238 2.3087869
-9.1685543 -4.8552322 2.0439394
-13.210364 -4.3019314 2.3065584
-11.737159 -4.13308 2.1023257
-11.437118 -3.7604418 2.0845282
-9.0870886 -2.5177436 2.0647502
-8.7095137 -2.8590646 2.0064435
-9.0587482 -2.4609103 2.0625215
-8.6766472 -1.845027 2.0394845
-8.1540546 -0.95566642 2.0225418
-6.6544762 1.7485125 2.0047393
-6.4150844 2.8912327 2.1063085
-6.5377655 3.1990366 2.1740966
-5.9599891 3.6581104 2.1695886
-20.262825 5.8478026 2.1208358
4.4197435 5.8481379 2.1364555
4.8070331 5.8722024 2.1086266
5.1549497 5.9612637 2.1072588
5.5758581 5.9752603 2.030365
4.3678398 6.362246 2.2561986
4.5764718 6.2466617 2.1487813
5.2472544 6.1465173 2.2033305
5.7248831 6.2219787 2.1609237
-19.130745 6.5733929 2.1202922
-18.850796 6.6827602 2.1194496
4.2954636 6.6955199 2.1540964
5.3353014 6.6316319 2.4981787
6.1546125 6.8427563 2.4605503
6.9560003 6.5910683 2.1098762
7.1279497 6.6902137 2.1445103
-23.549963 8.928298 2.001786
-23.519716 9.0415325 2.0130477
-23.440041 9.1766586 2.0254393
-23.15432 9.7706823 2.0512552
-23.026627 10.054148 2.0788054
-22.905293 10.244702 2.0966313
-22.574697 10.626091 2.2028415
-22.36718 10.862129 2.2233448
-22.133522 11.129652 2.2468066
-21.559927 12.283976 2.3327379
-21.432419 12.403536 2.3706737
-21.501583 12.566173 2.3266258
-21.349913 12.742779 2.372427
-21.266582 13.080574 2.3806858
-18.360418 15.025971 2.027983
-19.047047 15.712059 2.1006198
-18.931622 15.901154 2.1204715
-18.756977 16.219414 2.1188104
-18.463598 16.596937 2.1402917
-18.083757 17.216263 2.2603877
-18.258511 17.86112 2.3290963
-17.929157 17.927258 2.3363812
-17.667532 18.33427 2.3633385
-17.376232 18.323435 2.3625166
-17.147526 18.679569 2.4007392
-17.315702 19.643909 2.4862411
-15.022956 21.85503 2.0864043
-15.018925 22.038128 2.1030734
-14.685912 22.192045 2.1382098
-14.602545 22.645588 2.1820433
-14.352399 22.751631 2.2117009
-14.452269 24.35903 2.3666754
-13.28227 31.83733 2.2585058
-13.100491 32.304321 2.2901092
-13.000077 32.614639 2.3072877
-12.890173 32.823681 2.3325267
-12.74067 33.239204 2.3622546
-10.655073 33.475113 2.4686637
-12.601184 33.616638 2.3902636
-11.725925 33.837395 2.4657598
-11.212227 33.657959 2.46682
-10.743546 33.543079 2.4710846
-5.870996 38.968567 2.0125794
-6.1536665 39.204895 2.0151634
-4.8487158 41.980923 2.1755719
-4.6527386 42.321712 2.1959631
-4.2728453 42.728607 2.2240162
-4.363483 44.771854 2.3126948
-3.8905301 44.68021 2.320632
-4.2776012 45.077171 2.3284855
-3.0271084 46.819019 2.4129114
-3.3496778 47.178345 2.4206927
-3.0174999 48.082615 2.4685137
-2.8020892 48.377495 2.4885254
-2.7312887 48.522491 2.4982038
-36.057068 -32.621651 2.6016612
-40.082767 -32.164272 2.9893923
-39.988617 -32.300182 2.9798722
-36.55175 -32.085159 2.6434474
-39.101028 -30.925749 2.9392543
-39.866482 -30.34606 2.8547657
-15.183968 -5.2792592 2.5099435
-16.955984 -0.14588693 2.7029264
-30.269695 5.4008436 2.6002359
-30.107178 5.6544728 2.6179674
-29.896648 5.8979225 2.6323686
