# .PCD v0.7 - Point Cloud Data file format
VERSION 0.7
FIELDS x y z
SIZE 4 4 4
TYPE F F F
COUNT 1 1 1
WIDTH 1112
HEIGHT 1
VIEWPOINT 0 0 0 1 0 0 0
POINTS 1112
DATA ascii
-39.831352 -46.835217 -4.6135631
-38.094105 -45.537216 -4.4651437
-36.160645 -44.206615 -4.3082156
-35.661541 -44.481712 -4.3264871
-36.528191 -42.414658 -4.1479521
-23.370367 -40.301147 -4.881763
-25.712229 -39.610939 -4.7714067
-24.17079 -39.059555 -4.6627388
-23.378721 -39.266384 -4.7187805
-22.921846 -39.312729 -4.7062159
-24.320461 -38.784203 -4.6370621
-23.594875 -38.813042 -4.6410823
-30.408142 -37.211632 -4.7173553
-29.713583 -37.217163 -4.6991496
-21.436806 -37.203484 -4.456871
-31.059864 -36.685123 -4.6812925
-30.57313 -36.627312 -4.6610022
-31.058826 -35.837799 -4.5892711
-30.941582 -35.912033 -4.593246
-24.412128 -28.836905 -4.5286241
-22.195013 -28.192333 -4.3414297
-21.852196 -28.36137 -4.3461671
-22.48254 -27.852835 -4.3123455
-29.005426 -25.114948 -4.3103137
-28.310068 -25.537884 -4.3238025
-28.177191 -24.577011 -4.1992698
-27.938581 -24.965965 -4.2335801
-29.043726 -23.702271 -4.0694885
-28.942417 -23.330093 -4.0193377
-24.500439 -20.089264 -4.1752806
-25.039211 -19.344143 -4.114429
-24.781832 -19.754025 -4.1505547
-25.463106 -18.515047 -4.1387992
-25.653345 -17.930933 -4.0760546
-33.338913 -38.474979 -3.7282603
-40.487549 -37.135651 -3.7460835
-40.649712 -36.620987 -3.7024214
-39.31242 -35.035542 -3.5324295
-40.068291 -32.077591 -3.1813579
-36.767925 -32.135822 -3.219614
-40.114105 -31.603741 -3.1392264
-35.111359 -31.728825 -3.1506
-34.731796 -30.657188 -3.0458295
-33.664677 -30.824236 -3.0403993
-32.334129 -29.293079 -3.9324589
-31.981707 -29.602398 -3.9524913
-32.314255 -28.762291 -3.8752124
-30.954052 -28.490057 -3.7961583
-30.539999 -27.452656 -3.6704149
-31.928408 -26.23855 -3.5148618
-30.723858 -26.806198 -3.6084609
-31.600477 -25.733557 -3.450052
-30.967152 -24.846716 -3.3342373
-29.612854 -23.352705 -3.1289988
-28.27446 -23.234999 -3.9718671
-28.692226 -22.714539 -3.9320314
-29.780649 -21.965593 -3.1076574
-27.219467 -21.179956 -3.6684756
-27.365301 -20.220062 -3.6720333
-27.474245 -19.63315 -3.6083825
-27.126947 -18.999651 -3.5126941
-22.571087 -13.248004 -3.2230079
-17.046877 -13.328059 -3.8303418
-16.652706 -13.413045 -3.8006592
-22.077801 -12.536749 -3.0924115
-19.230083 -11.304615 -3.2716978
-14.660523 -11.092738 -3.7514122
-18.77367 -10.638891 -3.1325939
-9.8754158 -8.1119537 -3.2373927
-9.2842197 -7.8486829 -3.4248738
1.6556406 -4.4866662 -3.0876896
2.3106551 -4.553411 -3.187094
3.2621274 -4.4140162 -3.2458286
5.9482937 -4.0194082 -3.1604226
6.4655848 -4.1757274 -3.0668592
4.6781082 -3.7345901 -3.1689377
5.4345536 -3.3586032 -3.0728743
6.2919374 -3.7639565 -3.0725174
7.5247908 -3.3926811 -3.0420275
-46.219334 -40.811398 -2.716815
-43.077408 -37.286659 -2.4449089
-37.867168 -35.094498 -2.269958
-42.508484 -33.531029 -2.0562446
-40.528378 -33.132771 -2.0279529
-38.348328 -33.675014 -2.163805
-42.768486 -32.373344 -2.0782609
-40.613991 -32.793095 -2.0020661
-43.11908 -31.483435 -2.0650392
-42.988823 -31.880066 -2.0958109
-36.384548 -31.801811 -2.0188098
-37.355 -30.496405 -2.9912696
-37.506165 -29.147835 -2.8717229
-36.793457 -29.67568 -2.9072282
-35.48304 -28.467762 -2.7751803
-37.132336 -27.354368 -2.8476667
-35.360481 -27.36862 -2.6735005
-35.778847 -26.873976 -2.7762451
-33.442467 -23.477465 -2.4174366
-32.235504 -23.954853 -2.4368439
-31.394165 -23.273029 -2.3572922
-42.678677 -21.123388 -2.3010793
-28.868383 -21.178556 -2.9889038
-43.002811 -20.387663 -2.1754758
-42.944454 -20.588087 -2.289814
-29.349232 -20.716644 -2.9591353
-28.698658 -20.781706 -2.9404101
-27.848713 -20.759632 -2.9048061
-38.38129 -19.840008 -2.1336067
-28.248615 -19.833406 -2.8229017
-27.541189 -19.580013 -2.7683887
-38.319866 -18.656412 -2.0246973
-32.436749 -16.721228 -2.6257193
-31.065447 -15.664557 -2.4632504
-25.366743 -15.057686 -2.946631
-24.988377 -14.626857 -2.8738
-22.241884 -12.587868 -2.4711797
-21.999496 -12.361964 -2.4303851
-22.025623 -11.306467 -2.9023809
-21.878874 -11.279002 -2.26862
-20.597271 -11.46571 -2.835804
-23.273287 -10.976602 -2.2656522
-18.292509 -10.016778 -2.9974
-17.157921 -9.9758806 -2.8755026
-16.568623 -9.503355 -2.7497716
-14.811831 -7.5554996 -2.2797799
-13.629936 -7.0482635 -2.494591
-13.603966 -6.9786668 -2.4812329
-12.101229 -6.9404292 -2.6876211
-7.6692743 -6.292623 -2.5972154
1.165077 -5.2184768 -2.9407442
1.4663271 -4.3584843 -2.9542224
1.2841207 -3.0248022 -2.1292419
5.7746348 -3.2166181 -2.9699197
6.3862605 -3.3360658 -2.917449
7.0156245 -3.0607364 -2.9396641
1.2641405 -2.9675767 -2.0892687
5.5650921 -2.8689024 -2.9759243
6.3858442 -2.6735351 -2.9409103
5.2122974 -1.7852722 -2.1052299
-47.351433 -43.531292 -1.380031
-42.251839 -32.481953 -1.976481
-40.666512 -32.64365 -1.9906478
-40.172169 -31.483448 -1.9027961
-37.333572 -30.568295 -1.8360715
-41.119846 -29.949711 -1.9427321
-38.324539 -18.45327 -1.9192154
-36.948555 -17.401152 -1.8000721
-23.506628 -11.796259 -1.0779053
-22.568829 -11.624556 -1.4012146
-21.807758 -11.003119 -1.5663888
-15.138723 -7.5259027 -1.4217842
-14.745452 -7.491672 -1.4696101
-12.064779 -6.7255921 -1.9042617
-11.770654 -6.2946558 -1.5187433
-11.324744 -5.6460075 -1.403103
-9.9636583 -5.9656138 -1.270293
-9.1127949 -4.3962708 -1.2557216
-8.9736156 -4.308075 -1.3174194
-5.3280025 -4.2857566 -1.2359293
-4.2353616 -4.146184 -1.5069015
-3.9903169 -4.2357445 -1.4534554
-2.8674541 -4.2945471 -1.4584795
-6.1896839 -3.6467187 -1.1836398
-5.6982756 -3.6405394 -1.2751498
-4.9569178 -3.0514934 -1.3901888
-3.4958138 -3.3976054 -1.4530938
-2.3874688 -3.635098 -1.4403576
-1.3612393 -3.445992 -1.4060947
-0.65795779 -3.2077091 -1.3772945
0.27205062 -3.1332717 -1.336522
1.2350758 -3.0292439 -1.34163
-5.0343819 -2.533216 -1.2912649
-4.5012207 -2.5673478 -1.1771343
-3.3135231 -2.6089599 -1.3441809
-2.4339075 -2.3844514 -1.3105222
-1.3577224 -2.531383 -1.3555608
-0.42031431 -2.5073183 -1.375906
0.36355388 -2.3874314 -1.3336011
1.0979998 -2.420912 -1.4487263
-5.381784 -1.6966145 -1.0659682
-4.4830852 -1.5101866 -1.0592307
-3.4223514 -1.4417223 -1.106238
-2.3547053 -1.3057457 -1.1000644
-1.5241731 -1.4974267 -1.217978
-0.40302867 -1.4766766 -1.2076199
0.2599687 -1.6493793 -1.2685864
1.0414021 -1.9878891 -1.3582052
4.7040949 -1.2976693 -1.8344898
4.453455 -2.3107073 -1.498225
3.1193438 -5.5291576 -1.5350393
7.3552089 -1.0659273 -1.1455832
-3.3464353 -0.99169362 -1.1114144
-2.3105736 -0.81949103 -1.1101081
-1.4040855 -0.72032881 -1.1320679
-0.72186416 -0.57939935 -1.1128836
3.904655 -0.25278366 -1.0746647
3.3245776 -3.2478149 -1.3477563
1.9238186 -4.9236021 -1.5013812
6.4731607 -0.53866076 -1.1167119
7.3442202 -0.57759327 -1.0995027
8.3490934 -0.66747862 -1.0979192
-1.0426843 0.49986681 -1.0110837
-0.91786957 0.026838884 -1.0370086
3.9678829 0.022638436 -1.0296063
4.48279 0.46959633 -1.0302677
5.4478898 0.69601601 -1.0300629
6.2601008 0.5973649 -1.0223935
10.208936 0.23130564 -1.0241764
11.582558 0.25527623 -1.0113298
4.2861571 1.0208162 -1.0030036
5.6508636 1.1554475 -1.0035102
-44.851425 -36.710117 -0.90048665
-42.577557 -34.451447 -0.8057574
-42.780487 -33.484634 -0.74208212
-43.201305 -32.236481 -0.82268453
-42.135509 -32.708603 -0.70677483
-43.397621 -31.895756 -0.79740494
-40.079617 -31.703468 -0.68510485
-41.096775 -30.02758 -0.71801859
-37.050365 -30.241158 -0.65395719
-41.196808 -20.374973 -0.011774871
-34.638054 -16.827337 -0.85174447
-24.69277 -12.215271 -0.46394053
-25.077837 -11.898309 -0.41170868
-24.821655 -11.979835 -0.44774145
-22.244184 -11.270791 -0.99005491
-9.4157734 -7.1053457 -0.11832263
-10.598425 -6.3125076 -0.38172525
-9.1493759 -6.8035526 -0.094391592
-8.8232012 -6.7053146 -0.30673134
-16.981106 -5.9824147 -0.034351297
-10.449577 -5.5909576 -0.47869465
-9.6538639 -5.7242813 -0.57098877
-8.7209425 -5.3791828 -0.25807065
-9.0697861 -4.512012 -0.95629185
-8.4983101 -4.2005587 -0.46068251
-5.4816718 -4.3920856 -0.84297365
-5.9131866 -3.6887887 -0.85429108
-4.3616734 -2.2564549 -0.54538727
-3.8790288 -2.1862712 -0.64070207
-2.5225511 -2.2935951 -0.75676531
-15.494515 -1.9007056 -0.026230399
-4.4809194 -1.5769494 -0.92073929
-3.2352819 -1.6560614 -0.66207302
-2.6280313 -1.3599613 -0.8678565
-3.4319556 -0.2605809 -0.91563183
-2.5985413 -0.096030205 -0.99900776
-1.1677657 -0.11988935 -0.98772424
-0.76965684 -0.066461548 -0.50141615
7.2984443 -0.32616323 -0.97567475
-3.2457366 0.022033766 -0.97693253
-2.4127061 0.72814894 -0.92054355
-1.3177942 0.6818127 -0.90855461
-0.56406027 0.38717493 -0.3317793
0.055803217 0.30365431 -0.38388366
4.2143102 0.83737779 -0.99423426
5.7058229 0.70189327 -0.99375039
6.5608153 0.75301647 -0.98349148
7.338366 0.76890463 -0.94905573
8.4450788 0.60758662 -0.96590149
9.4667149 0.7289561 -0.96770847
10.230442 0.86845154 -0.95513129
11.211621 0.91066152 -0.88201267
13.576352 0.90829176 -0.93861097
-6.194612 1.8774613 -0.19749527
-5.4893956 1.7727072 -0.32610497
-4.2477965 1.4903346 -0.52257884
-3.4550424 1.5063033 -0.71594632
-2.3872895 1.4960887 -0.79975837
-1.4070646 1.5327634 -0.83042777
-0.79874384 1.6365443 -0.85630101
1.7966138 1.9263971 -0.10446846
3.9149356 1.8438056 -0.90951961
4.4298091 1.5689492 -0.94032514
5.4324384 1.5653051 -0.9565289
6.4792271 1.5208212 -0.95990443
7.4029856 1.5629294 -0.93971479
8.3813839 1.3628204 -0.94192404
9.3125496 1.3388845 -0.95332581
10.284845 1.4150608 -0.92210865
11.342462 1.4204415 -0.86224991
12.677763 1.1419648 -0.81148303
13.151373 1.63635 -0.82893074
15.206293 1.9643869 -0.72341067
-5.0020037 2.2284827 -0.26568225
-4.3747611 2.3164203 -0.31025982
-3.4817259 2.4658492 -0.44853795
-2.5523217 2.6014388 -0.53573871
-1.4436738 2.4963253 -0.71484631
-0.4285723 2.5688286 -0.7414059
0.26287448 2.7978616 -0.7303974
1.9032034 2.0284734 -0.12244296
2.6653006 2.7418628 -0.63681275
3.6105444 2.5457244 -0.82586473
4.4568129 2.4848731 -0.83378351
5.5107393 2.446017 -0.8702755
6.3510876 2.4183364 -0.89135665
7.3408318 2.5285165 -0.88559663
8.2030554 2.5740123 -0.84552902
9.2962923 2.6083043 -0.84989935
10.373075 2.5269468 -0.79763198
11.311606 2.6637132 -0.73321015
12.149173 2.8103282 -0.55062956
13.23793 2.1001356 -0.80348521
15.48081 2.1550219 -0.7348274
16.032078 2.3839383 -0.77014363
17.421352 2.6143401 -0.50984353
18.199476 2.7630737 -0.55493051
-6.9029503 3.8727036 -0.012830746
-1.3883374 3.1618307 -0.30354953
-0.54476923 3.3432198 -0.4121691
0.3907972 3.5969172 -0.39574879
1.3309397 3.6689622 -0.4691295
2.7809834 3.3364489 -0.6719473
3.39715 3.4881968 -0.6765874
4.487761 3.4251754 -0.68522334
5.3913484 3.3975253 -0.72508043
6.4682379 3.4279547 -0.78386122
7.4015689 3.5396471 -0.8109501
8.4922457 3.4730606 -0.80314457
9.6122608 3.3867249 -0.74740916
10.615332 3.6470404 -0.62590438
11.25466 3.7724228 -0.43846902
12.532211 3.2981327 -0.56378925
13.415768 3.8179796 -0.43432045
15.707122 3.5098572 -0.67369974
17.217646 3.5745237 -0.44025379
-6.9499483 4.0599947 -0.0046748105
-5.5136671 4.3784842 -0.038736552
-4.2251058 4.9159989 -0.048898339
1.5281867 4.0298567 -0.23989321
2.903095 4.0628619 -0.58748752
3.6382961 4.45153 -0.48540071
4.3548665 4.6196208 -0.46686417
5.3803678 4.4234047 -0.42423001
6.3616838 4.4185352 -0.43003872
7.3260689 4.4149961 -0.57237524
8.7589655 4.4345026 -0.71595293
9.3096819 4.3507729 -0.65239924
10.679392 4.8156404 -0.46964905
11.578839 4.2636318 -0.46365651
12.444055 4.4906344 -0.45088592
13.443735 4.4745641 -0.38686937
14.086889 4.2592816 -0.31679535
17.826498 4.975965 -0.38520807
19.780912 4.2775121 -0.57689649
20.588715 4.370389 -0.47962308
21.473536 4.6967254 -0.19418679
23.079807 4.7461028 -0.27164802
-4.2169061 5.4445524 -0.045263473
-3.0167985 5.8604703 -0.089815319
-2.9898572 5.9596434 -0.088159211
3.588105 5.3760424 -0.20003293
4.5552244 5.3182087 -0.19573675
5.6809397 5.1852288 -0.079109311
7.8369541 5.0288234 -0.61145651
8.7863417 5.60463 -0.42686075
9.4147291 5.4927783 -0.35191756
10.76433 5.835855 -0.26920676
11.47065 5.363977 -0.35378647
12.416704 5.688199 -0.25948322
13.96229 5.1653051 -0.41048294
15.379711 5.2857475 -0.1619869
16.573809 5.0394716 -0.2909286
17.668316 5.2807188 -0.35409343
18.360092 5.0391798 -0.41945624
20.281183 5.7106104 -0.058218535
22.814005 5.2920461 -0.21582408
24.668552 5.6246767 -0.28365207
-5.8368931 6.3179879 -0.0023792449
-4.1110425 6.3472724 -0.025871174
-2.967433 6.0777812 -0.084099688
-1.3754816 6.5715461 -0.09991917
0.63391995 6.6794281 -0.11711548
1.213405 6.8915119 -0.11535498
3.7256076 6.6527262 -0.11671078
4.3524141 6.3779769 -0.10930083
8.4087296 6.0272255 -0.10811397
9.9251976 6.1557894 -0.13503462
10.158937 6.307837 -0.21412054
11.40253 6.0767117 -0.14683758
13.464096 6.0656557 -0.017879684
16.745258 6.1781459 -0.23280104
17.151409 6.0918512 -0.23732212
20.339981 6.1365356 -0.030120291
21.941772 6.4842124 -0.083809406
24.787962 6.7228508 -0.2071403
-4.1170597 7.320941 -0.02687753
-2.4244483 7.5295153 -0.066492558
-0.019331664 7.7968202 -0.080436483
0.060899686 7.8768892 -0.081787229
1.7418956 7.0299196 -0.10963656
4.299675 7.0849428 -0.01430802
21.420141 7.2603478 -0.0031251796
-2.0292673 8.1607952 -0.049206961
-1.8651646 8.4592819 -0.04795751
0.72681445 8.2182484 -0.077992342
1.4035068 8.4493237 -0.072904937
4.2664232 8.1705084 -0.078736924
-3.717196 9.6505356 -0.0015638008
-0.41128802 9.9734993 -0.027962215
-0.33059072 10.012351 -0.025971096
0.59154469 10.563688 -0.01828533
1.2584634 10.870344 -0.015295943
4.9586582 10.435403 -0.0020302958
5.1037498 10.349908 -0.0026781387
1.7501286 11.047312 -0.00082149607
-41.504353 -32.704399 0.54554033
-35.105446 -30.873928 0.30778912
-38.138317 -12.829401 0.39542541
-25.126163 -12.158931 0.22128688
-24.927071 -12.2675 0.21843214
-9.1823549 -7.2572551 0.64238203
-8.9710751 -7.0691423 0.79284763
-10.343966 -6.2481771 0.52418655
-9.5267353 -6.6873031 0.43167862
-8.8051062 -6.718605 0.61036521
-16.949818 -5.9107151 0.0049126782
-11.087161 -5.6331224 0.72737569
-10.725174 -5.5609832 0.45000911
-9.6807299 -5.651124 0.43875736
-8.5519819 -5.2743831 0.51059264
-9.4869423 -4.9149327 0.94022834
-8.6871548 -4.7240477 0.88697404
-22.009773 -2.4979095 0.35822025
-15.3949 -2.1153338 0.5549382
-8.173914 -2.6150851 0.722372
-7.653357 -2.5087574 0.69332081
-6.3681679 -1.0265794 0.86698753
-5.5812111 -1.8135903 0.30590916
-2.9087367 -1.9167513 0.84807128
-17.224218 -0.84559131 0.41291949
-16.937893 -0.66339898 0.42863512
-12.329496 -0.29071459 0.4509244
-9.4810629 -0.93460917 0.68360192
-8.6875048 -0.23016667 0.92563593
-7.5116563 -0.45859385 0.69869876
-6.2482123 -0.48491207 0.5407415
-5.6260104 -0.33482334 0.26459301
-1.2700496 -0.11654925 0.84617132
-0.51441836 -0.046483334 0.30951232
-7.0567703 0.28467402 0.85092658
-6.8070273 0.2543765 0.76293635
-5.2188725 0.22822365 0.79786569
-4.8155746 0.23910491 0.77255869
-1.2578061 0.16897027 0.82224369
-0.5494197 0.32389662 0.3018631
1.317727 0.34684232 0.45934108
-13.377281 1.8759941 0.3355563
-10.503921 1.8644624 0.10698874
-7.2669072 1.5667386 0.008889256
-6.319725 1.4470621 0.56936646
-5.2486558 1.6241723 0.34960005
-4.863945 1.3329337 0.74498928
-3.4723744 1.3131284 0.14703718
1.7869074 1.8640721 0.39127845
2.0095606 1.7560897 0.23831114
-14.056835 2.933898 0.42129487
-11.025455 2.8379407 0.17240722
-10.859199 2.5908878 0.15773289
-4.5319266 2.4712245 0.087443456
-3.5009131 2.6525278 0.060872957
-2.652369 2.8315108 0.10590581
-1.3375294 2.9551671 0.048602875
1.840144 2.0369656 0.40620834
2.0163829 2.1015084 0.38014352
-14.271604 3.2481432 0.44595981
-11.580874 3.8691106 0.22494993
-9.0000906 3.977345 0.069215238
-8.7381964 3.5225642 0.059554979
-1.3375624 3.3431935 0.23919798
-0.73788339 3.5320954 0.43242827
0.43048105 3.849529 0.22596441
1.2706351 3.9345562 0.056082778
5.3145208 3.974788 0.17605264
-23.18399 4.4742999 0.97463864
-21.901405 4.0630817 0.92992336
-15.849583 4.8476419 0.54473042
-12.177861 4.793417 0.26216021
-11.72768 4.1497059 0.2426604
-9.2198162 4.4762282 0.098023541
-8.9863586 4.1028509 0.09380281
-7.0199566 4.5196586 0.045366503
-6.9466701 4.3102751 0.038340788
-1.072732 4.192801 0.26095852
-0.94467419 4.1834869 0.21971297
0.58315134 4.0130186 0.48443025
1.5497631 4.0577135 0.059656668
4.8877335 4.9897666 0.18738963
5.4275351 4.1781449 0.31225055
6.5156398 4.6533136 0.23366319
10.493518 4.8257136 0.15223734
-16.304619 5.287612 0.57588333
-12.498639 5.2616811 0.29905322
-9.5687847 5.4049845 0.16640782
-7.3738475 5.3520141 0.0532027
-5.7233982 5.962759 0.016402863
4.8097391 5.6070776 0.42394936
5.4683223 5.6970148 0.50376886
6.177846 5.50913 0.33992907
9.4247427 5.867352 0.27830783
11.294644 5.9590836 0.22443883
12.296332 5.678771 0.14715081
13.387121 5.9797068 0.030359197
18.136122 5.2322121 0.012901696
-18.161352 6.8301086 0.66266346
-17.671535 6.3885937 0.62786734
-13.413601 6.4451137 0.34861031
-10.32899 6.7761931 0.21356376
-5.8124986 6.4234633 0.016728308
4.5106053 6.4396081 0.48416784
6.7426119 6.280211 0.67321104
7.0130491 6.3688502 0.75193691
8.5485201 6.1512084 0.25481877
9.2695885 6.2743373 0.39590973
10.538986 6.6360469 0.45577633
11.406124 6.1406107 0.40207025
12.327854 6.5289116 0.44299799
13.392155 6.1097636 0.025089014
14.514823 6.5526571 0.47634172
15.194254 6.7547565 0.79551786
18.790211 6.1886015 0.099199116
19.277199 6.879467 0.086169019
20.184395 6.6892328 0.34349498
22.097826 6.263803 0.39049163
-18.157459 7.3528872 0.71838462
-17.990517 7.7848082 0.74513334
-14.253492 7.6762609 0.45830914
-13.830861 7.1950898 0.43567982
-10.620311 7.2207694 0.21238951
-8.1217842 7.806181 0.13904606
-5.8311167 7.4775314 0.049706619
4.2994971 7.0754547 0.55492204
11.459993 7.2988214 0.44943133
19.694069 7.0369887 0.064093202
21.6056 7.4483509 0.41543204
22.629265 7.3939152 0.51520658
31.824694 7.1145811 0.193737
33.349804 7.5466752 0.18701068
-18.064466 8.4084463 0.81205368
-17.928917 8.892581 0.90589547
-8.3884802 8.3867512 0.12927087
-6.0998521 8.5049191 0.043796167
19.92625 8.7735262 0.62535894
24.634151 8.7857857 0.54695356
33.51408 8.9426441 0.29477262
-17.805027 9.1926346 0.9352752
-15.582025 9.6280508 0.54158652
-8.7743645 9.5744524 0.17546521
-6.1970329 9.6640415 0.054703034
-3.6474576 9.8765516 0.0018345825
11.585402 9.7596645 0.60181016
26.423763 9.1669044 0.5022974
34.256092 9.0449238 0.28280511
-17.193346 10.288021 0.99230874
-16.914423 10.204374 0.99052
-15.508327 10.06218 0.55347478
-9.0462799 10.577874 0.19505844
-8.8604393 10.476004 0.19970831
-6.2008615 10.356003 0.070681982
-5.9025102 10.519859 0.10391438
-3.1938932 10.850328 0.027395146
12.208532 10.030847 0.26327401
-13.526848 11.683053 0.36395121
-9.1443672 11.203806 0.20940316
-6.2220197 11.016699 0.073304728
-3.1103613 11.185248 0.02547686
-2.8381059 11.816867 0.043917745
1.9004819 11.067148 0.00082736998
2.0386386 11.082636 0.0022513531
31.079147 11.101561 0.52885091
32.887402 11.01862 0.58645678
-14.587775 12.741718 0.83750927
-13.774385 12.513713 0.37871346
-10.085265 12.794735 0.20115334
-9.9110098 12.340252 0.19464231
-2.7494299 12.028831 0.045513663
-14.691931 13.37601 0.85326427
-13.358767 13.611124 0.49296951
-10.258438 13.197616 0.20554918
-6.3721108 13.959694 0.10853338
-1.2548614 13.936872 0.068193689
-14.204493 14.220711 0.97248566
-13.034727 14.203429 0.5314635
-12.854114 14.569824 0.56106603
-10.800544 14.687848 0.21190873
-6.3609257 14.488883 0.11515357
-1.1290563 14.071337 0.070403084
-0.39774784 14.567738 0.086553618
0.38638204 14.813719 0.10078064
6.5269046 14.108274 0.14258407
-12.512447 15.348522 0.61252683
-11.084908 15.730239 0.24288861
-10.932461 15.294229 0.23190366
0.79602605 15.193375 0.10430657
1.4105618 15.263824 0.11904368
2.150001 15.470039 0.14222017
3.1298437 15.634186 0.1407287
23.065737 15.282019 0.40345314
-12.270145 16.46069 0.67272633
-11.4857 16.59087 0.46042642
-6.032372 16.702477 0.16370867
-5.9679546 16.938232 0.16879438
-12.127105 17.244171 0.73774379
-11.251706 17.721155 0.39572638
-6.0522966 17.446747 0.16007148
-5.9135847 17.480789 0.17283088
-11.411945 18.511618 0.65973663
-10.977488 18.952391 0.38417768
-5.7475924 18.563187 0.19679371
-11.264259 19.374399 0.90955913
-10.878326 19.149689 0.39623278
-5.5652347 19.229652 0.21599661
-10.185935 20.656754 0.52886081
-9.9698162 20.865622 0.48166287
-10.021544 21.232605 0.49008888
-9.9739361 21.426769 0.4986856
-9.1224241 23.753252 0.61814952
-3.1471164 23.182947 0.30818024
-2.9302301 23.450027 0.31624186
-9.0242558 24.062935 0.62856597
-8.8931952 24.46105 0.64619237
-2.0901599 24.402988 0.34496957
-1.7088318 24.728666 0.35686469
-0.91914958 24.945248 0.3691293
-8.6302757 25.89823 0.72089005
-0.41340795 25.157236 0.38408467
0.43576771 25.691313 0.40669149
1.2634715 25.535772 0.42174962
-8.6637554 26.201296 0.72742182
0.68498814 26.058575 0.41415852
2.4259658 26.22016 0.47785729
4.4652896 26.842133 0.48919186
-8.7556314 27.57 0.75923216
-5.6335349 33.712742 0.99513054
-34.899826 -32.056671 1.3845649
-40.627224 -31.538464 1.7997559
-39.731289 -31.792629 1.7405256
-36.048851 -29.794102 1.6001631
-34.057755 -7.0759883 1.7314241
-9.350914 -7.2125874 1.1221545
-30.168716 -6.4209538 1.582159
-18.740051 -6.4762239 1.4286975
-17.856253 -6.2920189 1.3805823
-10.095091 -6.2286777 1.364367
-9.8214159 -6.1370482 1.6484485
-8.8330679 -6.7746387 1.21278
-25.619493 -5.276866 1.4362314
-17.970705 -5.8710713 1.8969965
-11.179714 -5.6709952 1.3105831
-10.468989 -5.4821429 1.4991564
-9.5665417 -5.4754782 1.3371124
-8.5699615 -5.186347 1.7083378
-13.223305 -4.4232211 1.7316649
-11.722807 -4.1209807 1.7809373
-9.3480358 -4.8465166 1.5948581
-8.6020308 -4.3829656 1.4725904
-10.827702 -3.8863113 1.9796743
-9.3235302 -3.10783 1.462841
-8.4371834 -3.023453 1.9445059
-15.673492 -2.0782499 1.3737048
-8.2530947 -2.675492 1.6820077
-7.6389022 -2.5487869 1.3705329
-2.673068 -2.5854654 1.0803168
-9.2774429 -1.4108341 1.4898534
-8.2323046 -1.4500957 1.68053
-7.2944999 -1.4021406 1.5356944
-6.4699793 -1.3512894 1.3760905
-3.1560287 -1.7955835 1.1674188
-18.02463 -0.50184977 1.8821099
-17.056883 -0.20908999 1.8339295
-8.2937927 -0.48684096 1.5604216
-7.3947163 -0.53954709 1.4263276
-6.710803 -0.593413 1.2438699
-5.5856824 -0.31289169 1.4252231
-8.4390459 0.029649049 1.9039406
-7.1781769 0.12021911 1.5143083
-6.4225845 0.19055407 1.425782
-5.5660586 0.58105856 1.3377422
-4.7109785 0.37711447 1.1430266
-3.6078784 0.3356601 1.3424501
-7.0956793 1.5123925 1.2980098
-6.5047603 1.4684832 1.3445199
-5.4150848 1.1185856 1.5597101
-4.672226 1.9987516 1.6974583
-3.4691882 1.4014674 1.2166152
-5.2148471 2.2459559 1.8205737
-4.4441743 2.6127837 1.600453
-3.8516231 2.6116683 1.6166552
-2.5437458 2.6431944 1.3010964
-1.2580047 2.8341627 1.327926
-2.3556592 3.5422196 1.5557755
-1.5070653 3.5100029 1.4021022
-0.89087284 3.4462039 1.2151803
0.74084556 3.8816767 1.2334257
-23.102591 4.7843623 1.0037252
-22.759102 4.8734422 1.0106893
0.75717658 4.0002375 1.3759054
-27.383108 5.4993777 1.7792186
-20.308834 5.9542837 1.4774057
4.7895727 5.5794673 1.4475771
5.3459082 5.7350373 1.4245458
6.3868837 5.8374 1.7449074
-25.577942 6.987865 1.852149
-22.168793 6.3449459 1.1253417
-21.835087 6.7020617 1.1588719
-20.242399 6.1466112 1.2320119
-19.088392 6.676168 1.2484206
-18.936401 6.6914873 1.624912
4.5083952 6.4261627 1.5073488
6.7670836 6.2630267 1.3995181
7.0477242 6.3684559 1.4496263
14.810627 6.6400437 1.3612223
15.261861 6.680572 1.385772
-25.488632 7.05094 1.8562558
-24.703388 7.4622583 1.8781064
-21.859499 7.9028139 1.2574971
3.9756415 7.1558571 1.9782491
4.2902994 7.0494156 1.5014136
13.960852 7.5306487 1.022324
14.2935 7.5755968 1.1541477
-24.055202 8.4607582 1.9324224
-23.823233 8.6732826 1.9698485
-21.695229 8.266016 1.3039441
33.616447 8.8574486 1.0638235
-21.558573 9.4475269 1.3982058
-16.972588 9.9297791 1.0162586
-21.175316 10.135715 1.534803
-20.925337 10.517754 1.5720713
-17.174677 10.171026 1.0345609
-16.797617 10.361628 1.043865
32.668118 10.886487 1.2971156
-20.41367 11.81253 1.6818243
-19.586563 11.93193 1.6514534
32.375122 11.161013 1.3476403
35.491989 11.797698 1.367824
-20.184231 12.212745 1.7031407
35.629116 12.076065 1.4505509
-16.249968 13.704451 1.3724039
-15.863582 13.729617 1.3682103
-14.190886 14.694715 1.0089376
-13.758046 14.952161 1.0293149
-17.19647 15.292343 1.459856
-16.524384 15.735703 1.528434
-15.690659 15.565928 1.5530224
-13.665906 15.3734 1.0637491
-15.356165 16.504065 1.6293358
-13.497526 16.281229 1.1236465
-15.407412 17.33132 1.6992801
-13.389235 17.529747 1.2013221
-16.095003 18.625179 1.7918938
-15.579096 18.767799 1.8149482
-13.237322 18.772726 1.3155745
-13.074013 19.697628 1.3702183
-12.777289 19.729259 1.4010158
-12.86001 20.354713 1.4376652
-10.049029 20.543421 1.1835659
-9.8613949 20.531847 1.0111837
-13.018802 21.673111 1.5518253
-12.913802 21.603079 1.5500644
-13.008786 22.00762 1.5760102
-12.912474 22.139238 1.5883548
-12.496178 24.34815 1.7357754
-11.805849 24.182716 1.7467846
-10.011149 24.81233 1.2319158
-9.7648458 24.901089 1.24338
-9.7080669 25.618813 1.2764621
-9.6901731 26.10005 1.2966169
-11.244842 30.663712 1.4576252
-10.866573 31.783936 1.5581985
-10.569912 32.516068 1.6035136
-10.341588 33.051796 1.6368432
-5.5216103 33.896896 1.0030708
-5.3025751 34.545773 1.0248874
-6.3070278 35.682518 1.8517842
-5.0932097 35.064339 1.0433074
-6.4709644 37.454735 1.9270551
-4.0994225 37.615204 1.1301997
-3.9731171 37.921967 1.1406068
-6.2723684 38.106228 1.9622526
-3.7300649 38.554104 1.1613578
-3.3486912 39.50729 1.1927406
-2.5422895 41.514565 1.2366457
-2.1590104 42.550713 1.2695687
-1.7772901 43.492661 1.2986066
-1.3434161 44.505047 1.3331994
-1.1010103 45.221279 1.3576108
-0.9306277 45.632881 1.3771269
-0.63558447 46.403442 1.3994278
-0.17363928 47.459641 1.4279337
0.175862 48.432861 1.4434497
0.57078385 49.403423 1.4717315
0.91782457 50.198395 1.4952098
1.2077208 50.793812 1.5132843
1.4250709 51.362514 1.5292459
2.5755529 54.83025 1.6995155
2.7409403 55.458668 1.7165344
2.9462912 56.749668 1.74875
3.2950253 60.723343 1.8421838
-40.082767 -32.164272 2.9893923
-39.988617 -32.300182 2.9798722
-36.304409 -32.353405 2.6225543
-39.356182 -30.732519 2.9110916
-37.994411 -18.359322 2.1822617
-30.332428 -6.2453346 2.3633895
-13.304852 -6.7769256 2.2450118
-10.436262 -6.4732151 2.2049718
-16.827686 -5.8840523 2.2495058
-15.183968 -5.2792592 2.5099435
-11.250114 -5.7997527 2.074508
-10.646879 -5.5025392 2.2725329
-9.1453485 -5.7101064 2.0201323
-13.446712 -4.4980655 2.3208122
-11.737159 -4.13308 2.1023257
-9.1685543 -4.8552322 2.0439394
-11.437118 -3.7604418 2.0845282
-9.0681953 -2.4798548 2.0632644
-8.7095137 -2.8590646 2.0064435
-8.6766472 -1.845027 2.0394845
-16.955984 -0.14588693 2.7029266
-8.1540546 -0.95566642 2.0225418
-6.6544762 1.7485125 2.0047393
-6.4150839 2.8912325 2.1063085
-6.5377655 3.1990366 2.1740966
-5.9599891 3.6581104 2.1695886
-30.161352 5.5699301 2.6120572
-29.896648 5.8979225 2.6323686
-20.274368 5.7927246 2.378
4.606216 5.8597231 2.1230562
5.2952528 5.965929 2.0816276
-19.178053 6.5970683 2.4628773
-18.7535 6.7186675 2.4213836
4.4064054 6.4623389 2.1786051
5.3934774 6.1853275 2.2004371
6.3148904 6.792418 2.3904157
7.1279497 6.6902137 2.14451
-27.428066 7.7561355 2.6757495
-27.124475 8.0320616 2.6909573
-26.680805 8.2649031 2.6832929
-25.677406 8.9564896 2.7062185
-23.549963 8.928298 2.001786
-25.360672 9.2211895 2.7277474
-24.937548 9.6291866 2.7646694
-23.284542 9.5060472 2.0384505
-24.448273 10.446014 2.8041968
-23.026627 10.054148 2.0788054
-22.598431 10.597311 2.175981
-24.004585 11.07347 2.9340827
-23.83523 11.432851 2.9687226
-22.133522 11.129652 2.2468066
-21.434879 12.542508 2.3574777
-21.266582 13.080574 2.3806858
-19.047047 15.712059 2.1006198
-18.78882 15.682359 2.0973492
-20.311728 16.753199 2.8448935
-18.705202 16.286034 2.1226013
-20.131668 17.265049 2.8704097
-19.849949 17.638599 2.8918529
-18.153854 17.565454 2.4391687
-17.886768 17.831127 2.631274
-17.308098 18.463997 2.4999301
-17.310341 19.748692 2.4975483
-17.138914 20.245243 2.5517073
-15.022956 21.85503 2.0864043
-15.018925 22.038128 2.1030734
-14.606506 22.385021 2.1605575
-15.403975 23.34914 2.8946395
-14.452269 24.35903 2.3666754
-14.24609 27.497478 2.63098
-14.044338 28.152172 2.6955068
-13.974072 28.400331 2.7198317
-13.28227 31.83733 2.2585058
-13.087938 32.343109 2.2922564
-12.890172 32.823681 2.3325267
-12.694176 33.365017 2.3715911
-11.469077 33.747677 2.46629
-10.721428 33.526085 2.4704795
-5.870996 38.968567 2.0125794
-6.1536665 39.204895 2.0151634
-4.8487158 41.980923 2.1755719
-4.5007811 42.48447 2.2071843
-4.363483 44.771854 2.3126948
-3.8905301 44.68021 2.320632
-4.2776012 45.077171 2.3284855
-3.0271084 46.819019 2.4129114
-3.3496778 47.178345 2.4206927
-3.0174999 48.082615 2.4685137
-2.5875514 48.646381 2.5053618
-2.1764035 49.360229 2.5453877
-1.824827 49.743755 2.5710952
-1.4956447 50.183624 2.6055422
-1.3318152 52.617386 2.7242389
-1.0148785 54.026459 2.7926004
-0.86868513 54.100929 2.7988093
-0.78289533 55.894352 2.8792958
-0.62168974 56.232468 2.8973396
-0.21273553 57.658897 2.961874
-38.842907 -28.957008 3.9773793
-16.896732 -0.20859265 3.1261992
-31.030201 3.8797915 3.2481647
-26.031944 4.3544011 3.5883775
-20.322756 5.7064409 3.4021988
-19.250059 6.7037511 3.1632862
-18.629547 6.7238564 3.3011513
-29.291765 9.2950411 3.646214
-28.49229 10.124298 3.7083185
-27.730831 10.324154 3.6988692
-26.682087 10.898311 3.662667
-26.23687 11.287428 3.6814518
-25.853634 11.859482 3.8100193
-23.663673 11.837733 3.0090117
-25.704473 12.352634 3.8630266
-23.271301 12.883365 3.1171129
-23.209881 13.416617 3.1401672
-22.49411 13.186906 3.284955
-23.096785 14.061616 3.1877127
-22.446857 17.910809 3.726115
-18.067593 17.665123 3.5325804
-17.892559 17.764736 3.5403368
-22.395756 18.646376 3.7966859
-19.646519 18.526424 3.0539815
-17.567461 18.112286 3.5621622
-22.356787 19.361746 3.853368
-21.516062 19.978228 3.9719396
-19.097542 19.926945 3.1987846
-19.194975 20.358801 3.2533593
-19.222942 21.682526 3.3980684
-19.22447 22.363899 3.4832807
-18.8507 22.039356 3.4378924
-15.384905 22.991339 3.5350466
-15.307533 23.210382 3.5471187
-16.299629 25.536537 3.144963
-14.022614 26.334328 3.9443769
-13.684127 26.262051 3.9340379
-17.135326 31.80258 3.8154311
-17.028555 32.046673 3.8438358
-16.949963 32.424469 3.8870068
-17.015127 33.093365 3.9614666
-16.96315 33.320877 3.9875562
-14.201268 33.793152 3.2259631
-14.100159 34.376835 3.2719197
-13.590947 34.51181 3.2950404
-12.937691 34.414207 3.2945614
-12.302612 35.616459 3.4533496
-11.396687 35.22319 3.4336562
-12.731781 37.648689 3.6315868
-12.612509 38.000336 3.6659086
-7.7895885 45.580063 3.3330193
-7.7495279 46.730278 3.4122672
-7.6536417 47.266708 3.4510698
-6.2254558 50.726631 3.7197196
-6.1132822 51.477894 3.7732759
-5.872057 52.492977 3.8476505
-5.4103618 53.594807 3.9328156
-0.0041457489 59.890736 3.0513074
-39.5681 -28.927856 4.0456371
-25.874268 4.2829638 4.6568804
-20.245014 5.6256504 4.2105393
-19.955635 5.5586357 4.6943831
-23.808159 6.6639199 4.8478718
-18.492685 6.6941395 4.3043418
-15.998648 6.1606679 4.1383514
-16.119341 7.6668153 4.4275823
-26.161608 8.2805901 4.6753201
-22.470127 8.3480167 4.5984278
-15.727102 8.971838 4.589694
-15.721581 9.0782185 4.5841975
-26.34973 10.021108 4.2659574
-26.277605 11.506903 4.450417
-26.390991 12.390423 4.6364522
-25.881001 12.472785 4.6020441
-22.447123 13.108717 4.3564525
-26.232986 14.50778 4.1806445
-25.667736 14.114902 4.4500823
-18.275368 17.596691 4.4598203
-17.624386 17.536222 4.406673
-23.841614 18.899862 4.6503716
-17.443899 18.389851 4.4411287
-23.367113 19.242258 4.64819
-22.140696 20.579018 4.0765681
-22.228739 21.051012 4.1445889
-21.205629 21.824108 4.1975517
-21.719116 22.53392 4.3131542
-15.322737 22.903639 4.3318939
-14.796228 22.942158 4.1763425
-21.585587 23.802565 4.4646049
-20.541698 23.014608 4.3221216
-15.428678 23.180616 4.2119699
-21.397318 24.428843 4.5480018
-20.989977 24.544765 4.5528593
-16.845016 24.666157 4.4423079
-13.999089 26.969614 4.0285506
-14.11513 27.008013 4.0338864
-18.668026 28.672382 4.295433
-16.893288 33.532555 4.0120635
-15.253831 35.521065 4.2708774
-15.325425 36.749249 4.403244
-14.518905 36.9137 4.4329119
-15.141171 37.170601 4.4475398
-14.778715 37.231251 4.4597812
-15.096135 38.431885 4.5852852
-15.480154 39.92374 4.7498174
-15.492704 40.25774 4.7875695
-14.328236 40.567837 4.8773108
-8.749341 51.133862 4.8921456
-5.6730242 59.742596 4.3435864
-40.046722 -29.00317 5.2841954
-25.782303 4.292953 5.5293674
-30.873119 5.2038383 5.7051544
-23.490717 6.6849051 5.4293876
-25.378399 7.5495696 5.1757035
-24.922312 7.1851606 5.7333732
-29.588345 8.4076328 5.1250443
-28.891237 8.2482939 5.7712412
-25.177738 8.3730202 5.5776792
-34.446732 9.5503235 5.8392477
-29.785805 9.4863873 5.2484894
-28.796522 9.3879728 5.1223545
-27.250885 9.7276688 5.7485504
-26.874819 9.7877531 5.7056556
-19.884026 9.8372793 5.3787389
-33.436638 10.628401 5.8164334
-32.985695 10.285061 5.719748
-27.034782 10.629871 5.817143
-26.795517 10.694651 5.5563889
-28.026888 11.051303 5.2626252
-26.442698 11.22858 5.1114349
-26.276648 12.270579 5.3269815
-25.77121 12.365908 5.9971728
-22.498993 13.052452 5.0308218
-25.193039 14.231322 5.468482
-18.674067 17.337345 5.3869462
-17.563992 17.334034 5.2879181
-17.77573 20.556816 5.8839226
-22.715113 21.888817 5.0404515
-22.530842 22.581459 5.1182799
-15.619301 22.805279 5.5181108
-16.053982 23.953592 5.7183318
-15.501014 23.452551 5.620647
-16.385849 24.362146 5.8469949
-15.547539 24.098265 5.754858
-14.818251 24.210257 5.7492247
-13.990259 26.614651 5.4175615
-19.024935 27.020739 5.6310663
-18.867495 27.159348 5.6645603
-15.805349 37.743271 5.4783592
-15.584152 38.401718 5.5668831
-14.283075 42.650246 5.1139092
-8.9028635 53.412678 5.0964141
-6.8253341 55.439667 5.321424
-44.962139 -41.673756 6.0183444
-30.412661 4.7387104 6.3622942
-30.917625 5.8039107 6.5766726
-34.431396 8.7798653 6.6195965
-32.11055 8.9728842 6.3189259
-33.048313 9.098525 6.4670973
-31.70507 9.0681314 6.2749138
-33.291588 10.451341 6.6409335
-24.100067 10.793632 6.1977634
-27.169264 12.183538 6.1559463
-26.610981 12.476878 6.3105431
-20.107765 15.838737 6.5393524
-20.261673 16.096191 6.6128826
-18.167994 20.527849 6.5882788
-17.597733 20.47274 6.5226078
-19.230225 21.483784 6.892055
-18.863159 21.640419 6.1798372
-15.156432 21.57379 6.5295177
-16.143612 22.680014 6.8563895
-15.143897 22.184021 6.6823883
-14.956504 22.222277 6.6587777
-16.218649 23.256657 6.2910457
-15.620378 23.425577 6.3614068
-14.792812 23.944332 6.3850355
-17.150311 24.795912 6.6856837
-16.980413 24.625139 6.6585159
-15.821909 24.395147 6.5349288
-14.751465 24.328453 6.4628577
-17.255238 25.679661 6.1370153
-18.624783 27.274338 6.4843211
-16.922348 27.604601 6.4928756
-16.493847 38.541161 6.587811
-15.578924 38.190228 6.5146198
-14.428092 43.268661 6.2631903
-8.3156109 50.618015 6.0490112
-8.6217003 51.006302 6.088644
-36.893051 6.2528934 7.6349211
-19.042231 21.336432 7.5635462
-18.432047 21.330973 7.4942713
-15.222064 21.580463 7.2011871
-14.339034 21.759995 7.184247
-19.051779 22.162664 7.0192914
-16.31082 22.808699 7.6040845
-15.232877 22.250854 7.3797126
-14.787176 22.556618 7.4336863
-16.252995 23.002439 7.6455026
-15.380402 23.840279 7.0857859
-14.992684 23.870461 7.0772662
-16.100424 24.204466 7.2314816
-15.697396 24.202993 7.2015214
-15.855293 37.658165 7.4182615
-14.931144 37.652843 7.3856587
-15.342331 42.537392 7.2331882
-14.627252 42.524578 7.2258196
-14.280048 43.111538 7.3162479
-15.547537 24.716869 8.0467329
-15.610344 25.107164 8.1494293
-17.169569 27.506472 8.888484
-8.8378458 51.624004 8.6266241
-8.7921629 52.773167 10.081796
-9.6568375 52.585423 12.629433
-9.4401588 53.116589 12.750477
