# .PCD v0.7 - Point Cloud Data file format
VERSION 0.7
FIELDS x y z
SIZE 4 4 4
TYPE F F F
COUNT 1 1 1
WIDTH 551
HEIGHT 1
VIEWPOINT 0 0 0 1 0 0 0
POINTS 551
DATA ascii
-36.609863 -54.287056 -5.1586056
-36.719048 -53.891693 -5.1249142
-38.770947 -49.2691 -4.8224211
-39.831352 -46.835217 -4.6135631
-38.094105 -45.537216 -4.4651437
-36.160641 -44.206615 -4.3082156
-35.661541 -44.481712 -4.3264866
-36.528191 -42.414658 -4.1479521
-23.370367 -40.301147 -4.881763
-25.077036 -39.274097 -4.7145514
-23.429016 -39.117477 -4.6922822
-30.550583 -36.825943 -4.6811395
-29.713581 -37.217163 -4.6991496
-21.436806 -37.203484 -4.456871
-31.000204 -35.874916 -4.5912585
-24.41213 -28.836906 -4.5286245
-22.195013 -28.192333 -4.3414297
-21.852196 -28.36137 -4.3461671
-22.48254 -27.852835 -4.3123455
-28.361202 -25.412083 -4.311255
-27.938581 -24.965965 -4.2335801
-28.967743 -23.423138 -4.0318751
-24.500439 -20.089264 -4.1752806
-25.145178 -19.102421 -4.1392822
-25.653345 -17.930933 -4.0760546
-51.2001 -46.621754 -3.1643715
-46.219334 -40.811398 -2.716815
-33.338913 -38.474979 -3.7282603
-43.077408 -37.286659 -2.4449089
-40.56863 -36.878319 -3.7242525
-39.31242 -35.035542 -3.5324295
-37.867168 -35.094498 -2.269958
-42.619915 -33.034878 -2.0656803
-40.403553 -32.667816 -2.4037924
-38.348328 -33.675014 -2.163805
-36.767925 -32.135822 -3.219614
-43.075665 -31.615646 -2.0752964
-40.114105 -31.603741 -3.1392264
-36.869774 -31.149109 -2.5050397
-34.98484 -31.371613 -3.1156764
-33.664677 -30.824236 -3.0403993
-37.149811 -29.411758 -2.8894756
-35.48304 -28.467762 -2.7751803
-32.324192 -29.027683 -3.9038355
-31.46788 -29.046227 -3.8743248
-37.132336 -27.354368 -2.8476667
-35.569664 -27.121298 -2.7248728
-30.817141 -27.002159 -3.6216412
-31.38937 -25.437943 -3.4114473
-32.838985 -23.71616 -2.4271402
-31.394165 -23.273029 -2.3572922
-29.202826 -23.149483 -3.4541955
-42.796658 -20.869183 -2.2737055
-29.015707 -21.034317 -2.9794879
-27.41342 -20.579952 -3.5315671
-38.350578 -19.248211 -2.0791521
-28.248615 -19.833406 -2.8229017
-27.427521 -19.518711 -3.4524355
-32.436749 -16.721228 -2.6257193
-31.065447 -15.664557 -2.4632504
-25.177559 -14.842272 -2.9102154
-22.312649 -12.848875 -3.0596342
-21.999496 -12.361964 -2.4303851
-16.696503 -13.403603 -3.8039572
-22.649456 -11.141535 -2.5840166
-21.451674 -11.341238 -2.4576814
-18.770134 -10.645121 -3.1331525
-14.660523 -11.092738 -3.7514122
-16.765057 -9.6608639 -2.791682
-9.8754158 -8.1119537 -3.2373927
-14.811831 -7.5554996 -2.2797799
-13.11171 -6.98912 -2.5544815
-9.2842197 -7.8486829 -3.4248738
-7.6692743 -6.292623 -2.5972154
1.6006577 -4.5321903 -3.0643966
2.5925729 -4.5121098 -3.2044969
5.9482937 -4.0194082 -3.1604226
6.4655848 -4.1757274 -3.066859
1.2701346 -2.9847445 -2.1012607
5.333879 -3.3597112 -3.0688674
6.5926332 -3.3653464 -2.9997962
5.2122974 -1.7852721 -2.1052299
-47.351433 -43.531292 -1.380031
-44.851425 -36.710117 -0.90048665
-42.577557 -34.451447 -0.8057574
-42.844193 -32.638218 -0.93226975
-40.666512 -32.64365 -1.9906478
-43.397621 -31.895756 -0.79740494
-40.44952 -31.071499 -1.1019733
-37.239174 -30.459249 -1.4420335
-41.119846 -29.949711 -1.9427321
-41.196808 -20.374973 -0.011774871
-38.324539 -18.45327 -1.9192154
-36.948555 -17.401152 -1.8000721
-34.638054 -16.827337 -0.85174447
-24.69277 -12.215271 -0.46394053
-24.907049 -11.95266 -0.43573055
-22.98362 -11.651446 -1.1710334
-21.807758 -11.003119 -1.5663888
-14.892927 -7.504508 -1.4516753
-12.064779 -6.7255921 -1.9042617
-11.331067 -6.3013506 -1.0923616
-9.0528879 -6.8298812 -0.20654424
-16.981106 -5.9824147 -0.034351297
-10.668368 -5.6047192 -0.70979667
-9.0523024 -4.8120618 -0.69616675
-5.0950608 -4.2752671 -1.2148432
-3.1169791 -4.2814798 -1.457363
-6.1896839 -3.6467183 -1.1836399
-4.7721171 -2.7271514 -1.0101752
-2.7256386 -2.8114557 -1.2730876
-0.76400977 -2.8059745 -1.3784578
0.60356355 -2.4530435 -1.3701233
-15.494515 -1.9007056 -0.026230399
-4.5639973 -1.551412 -1.0094827
-2.695564 -1.2835777 -0.95645171
-0.85598934 -0.77053189 -0.95868427
0.26571447 -1.6518685 -1.2692444
3.9046543 -0.25278369 -1.0746645
4.1062531 -2.5313227 -1.4261082
5.9594865 -1.4062901 -1.1551176
8.3490925 -0.66747862 -1.0979192
-6.1946115 1.8774613 -0.19749527
-4.7487926 1.6042743 -0.44329995
-2.7380118 1.3698063 -0.7931152
-0.92187333 0.91126561 -0.62485731
0.97936255 1.1645751 -0.23564424
3.9224999 1.5836389 -0.92667484
4.7536416 1.0860168 -0.98480034
6.8455143 1.0676019 -0.96578801
8.8113775 0.93710846 -0.95883363
10.850917 1.1108713 -0.91625959
13.050942 1.3061907 -0.84331238
15.206293 1.9643869 -0.72341067
-6.9029503 3.8727031 -0.012830747
-4.3810334 2.315541 -0.3098141
-2.983995 2.5384629 -0.49523729
-0.7832399 2.9762919 -0.5267964
0.88839924 3.4912095 -0.47009993
3.2562027 3.0894825 -0.71256506
4.8392725 2.7913148 -0.79764032
6.8082943 2.8593321 -0.85159653
8.8521824 3.0548337 -0.8088429
10.815129 3.2258317 -0.6524111
12.891508 2.8771429 -0.61883175
15.585262 2.7803304 -0.70661467
16.89036 2.8576007 -0.57341373
18.199476 2.7630737 -0.55493051
-6.9499483 4.0599947 -0.0046748105
-4.6836987 5.0118818 -0.043258622
-3.0085092 5.8909855 -0.089305744
1.5281867 4.0298572 -0.23989326
3.5984011 4.6524606 -0.4226948
4.7017379 4.8654423 -0.33942661
6.6726427 4.4219537 -0.475665
9.0694466 4.9294949 -0.54679114
11.002646 5.1736722 -0.38793898
12.790697 5.0480494 -0.34996611
14.909595 4.9124875 -0.21828091
17.378199 5.1682549 -0.34049132
18.8337 4.7852907 -0.47193632
20.969618 4.8016019 -0.25262401
23.013355 4.8825884 -0.25769204
24.668552 5.6246767 -0.28365207
-4.3197966 6.8769846 -0.023625618
-2.6841364 6.835207 -0.07491336
-1.3388288 6.604661 -0.099392615
0.98296499 6.9058366 -0.11276076
3.7256076 6.6527267 -0.1167108
4.3456817 6.4682283 -0.097174093
9.4197083 6.1129341 -0.12606107
10.407656 6.2616119 -0.20066395
13.464096 6.0656557 -0.017879684
17.070181 6.1091104 -0.23641789
21.233967 6.6270323 -0.039018296
24.787962 6.7228508 -0.2071403
-3.0420244 9.0546408 -0.020621067
-1.6713145 8.6611767 -0.045291472
1.0950147 8.3439798 -0.075224198
4.2664237 8.1705084 -0.078736916
-0.33059072 10.012351 -0.025971096
0.84784991 10.679202 -0.016552158
5.0641794 10.373225 -0.0025014542
-41.504353 -32.704399 0.54554033
-34.899826 -32.056671 1.3845649
-40.627224 -31.538464 1.7997559
-39.731289 -31.792629 1.7405256
-35.105446 -30.873928 0.30778912
-36.048851 -29.794102 1.6001631
-46.668682 -16.293686 0.35947713
-38.138317 -12.829401 0.39542541
-25.046526 -12.202359 0.22014497
-34.057755 -7.0759883 1.7314241
-30.168716 -6.4209538 1.582159
-18.740051 -6.4762239 1.4286975
-17.856253 -6.2920189 1.3805823
-10.272861 -6.2426057 0.76423812
-9.0604839 -6.7901945 0.84496039
-25.619492 -5.2768655 1.4362314
-17.460262 -5.890893 0.95095462
-13.223305 -4.4232211 1.7316649
-10.793056 -5.5476847 0.80235881
-9.2101192 -5.1671629 1.1034911
-22.009773 -2.4979095 0.35822025
-15.487764 -2.1029727 0.82786036
-10.827702 -3.8863113 1.9796743
-8.3609962 -2.7262976 1.6048651
-7.6473346 -2.5254366 0.97549278
-2.6730683 -2.5854654 1.0803169
-18.02463 -0.50184977 1.8821099
-17.072998 -0.57269347 0.89182806
-12.329496 -0.29071459 0.4509244
-8.5336189 -0.9334687 1.4742402
-6.9034133 -0.87559897 1.1576391
-5.5982733 -0.6060496 0.82514381
-2.9705596 -1.8864594 0.92790812
-0.54029572 -0.048882872 0.32789099
-13.377281 1.8759941 0.3355563
-10.503921 1.8644624 0.10698874
-8.4390459 0.029649049 1.9039406
-6.5070052 1.2130451 0.88043636
-5.3065181 0.77988178 1.0915868
-3.4808373 1.2923011 0.89719397
-0.55239588 0.3232455 0.30404934
1.3776896 0.49713752 0.4740012
2.0095603 1.7560897 0.23831113
-14.164219 3.0910206 0.43362734
-11.23389 3.250587 0.19256425
-8.7500992 3.5432372 0.059994094
-4.52665 2.5230153 0.84547877
-2.8215396 2.7775862 0.80118865
-0.94737917 3.4611447 0.60230571
0.94504148 3.5859597 0.30012986
2.0163829 2.1015084 0.38014349
5.3145208 3.974788 0.17605264
-27.383108 5.4993777 1.7792186
-23.039339 4.6769304 0.99324924
-20.627348 5.5760436 1.3679093
-16.304619 5.287612 0.57588333
-15.849583 4.8476419 0.54473042
-12.378348 5.0860825 0.28521836
-11.72768 4.1497054 0.2426604
-9.3423624 4.8224769 0.12540467
-7.235528 5.0164013 0.048639052
-5.7233982 5.962759 0.016402863
-1.0094227 4.1881967 0.24056751
1.4064535 4.0506344 0.14367603
4.9733663 5.5714917 0.90113568
6.4447703 5.0371222 0.60613388
9.4247417 5.8673511 0.27830783
11.161123 5.7701888 0.21240526
12.919639 5.8507342 0.080412745
18.136122 5.2322121 0.012901696
-24.91086 7.3515444 1.8721302
-22.168793 6.3449459 1.1253417
-21.388754 6.9722023 1.2149923
-18.488289 7.0030107 0.95376188
-17.711407 6.5631204 0.64252549
-14.253492 7.6762609 0.45830914
-13.529505 6.6534405 0.37279627
-10.462513 6.9799576 0.21302554
-8.1217852 7.806181 0.13904607
-5.8220339 6.9633512 0.033619639
3.9756415 7.1558571 1.9782491
4.4852471 6.5046434 0.98593444
6.7847118 6.2817326 1.0616564
8.9605598 6.2215672 0.33544219
11.108034 6.3566551 0.4224824
12.982321 6.453928 0.32163021
14.797646 6.7290516 0.88045514
19.093739 6.5797572 0.090084903
21.210821 7.2374845 0.39544952
22.297113 6.6875944 0.4372597
31.824694 7.1145811 0.193737
33.349804 7.5466752 0.18701068
-24.055202 8.4607582 1.9324224
-23.823233 8.6732826 1.9698484
-21.635813 8.7797165 1.3449275
-18.064465 8.4084463 0.81205368
-17.76314 9.1778154 0.93462467
-15.582024 9.6280508 0.54158652
-8.5262947 8.8109303 0.14576885
-6.1708694 9.3519707 0.051766582
-3.6474576 9.8765516 0.0018345825
11.585402 9.7596645 0.60181016
19.92625 8.7735262 0.62535894
24.634151 8.7857857 0.54695356
26.423763 9.1669044 0.5022974
33.582329 8.885848 0.80747318
34.256092 9.0449238 0.28280511
-20.719498 11.088734 1.6194943
-19.586563 11.93193 1.6514534
-16.886576 10.319481 1.0324445
-15.508327 10.06218 0.55347478
-13.526848 11.683053 0.36395121
-8.9478302 10.646513 0.20112152
-6.2035065 10.43859 0.071009822
-5.9025102 10.519859 0.10391438
-3.0710115 11.228024 0.03074649
1.9004819 11.067148 0.00082736998
2.0386386 11.082636 0.0022513531
12.208532 10.030847 0.26327401
31.079147 11.101561 0.52885091
32.562267 11.023181 1.2406088
35.491989 11.797697 1.367824
-20.184233 12.212746 1.7031412
-16.249968 13.704451 1.3724039
-14.91618 13.210321 0.96344364
-13.623254 12.912772 0.42026111
-10.14299 12.929029 0.20261864
-9.9110107 12.340251 0.19464229
-6.3721108 13.959694 0.10853338
-2.7494299 12.028831 0.045513663
-1.2548612 13.936872 0.068193689
35.629116 12.076065 1.4505509
36.857948 13.024116 1.4057691
-17.084457 15.366237 1.4712858
-14.574335 14.616268 1.1221763
-13.035566 15.018638 0.73970294
-10.919819 15.186487 0.22771491
-6.3609257 14.488883 0.11515357
-0.58057487 14.44364 0.082515977
0.83083206 15.046708 0.10799302
2.4439542 15.519281 0.14177273
6.5269055 14.108273 0.14258407
23.065737 15.282019 0.40345314
-15.385449 16.976784 1.6693041
-12.990685 16.58243 0.96298486
-11.322922 17.377155 0.41541767
-6.0450516 17.176104 0.1613941
-5.9234705 17.382143 0.17209697
-16.095003 18.625179 1.7918938
-15.579096 18.767799 1.8149482
-12.945743 19.551155 1.3768798
-11.326992 18.731203 0.67234987
-5.6647029 18.866125 0.2055223
-12.917989 21.054743 1.499454
-10.121373 20.755865 0.66084647
-9.9166355 20.839022 0.75067902
-12.96063 22.073429 1.5821825
-9.1224241 23.753252 0.61814952
-3.065784 23.2831 0.31120333
9.8515291 23.595415 0.46788421
10.109508 23.37928 0.46381116
-12.496178 24.34815 1.7357754
-11.549463 24.272663 1.6732318
-9.3390388 24.971556 0.97653592
-2.0901599 24.402988 0.34496957
-0.85193723 25.008099 0.37447664
0.69912797 25.641825 0.41148269
-9.0021534 27.044678 0.90289986
0.68498814 26.058575 0.41415852
2.4259655 26.22016 0.47785729
4.4652896 26.842136 0.48919186
-10.942227 31.559891 1.5380839
-10.541371 32.583035 1.6076797
-5.558918 33.83551 1.0004241
-6.3070278 35.682518 1.8517842
-5.2676811 34.632202 1.0279574
-6.4709644 37.454735 1.9270551
-4.0994225 37.615204 1.1301997
-3.9731171 37.921967 1.1406068
-6.2723684 38.106228 1.9622526
-3.5605655 38.977741 1.1753056
-2.5422897 41.514565 1.2366456
-2.1590104 42.550713 1.2695687
-1.7772901 43.492664 1.2986066
-1.1978174 44.914845 1.3483859
-0.34686872 47.063568 1.417244
0.37332293 48.918144 1.4575906
1.1352323 50.669384 1.5092467
2.6582465 55.144459 1.708025
2.9462912 56.749668 1.74875
3.2950253 60.723343 1.8421838
-40.082767 -32.164272 2.9893923
-39.988617 -32.300182 2.9798722
-36.304409 -32.353405 2.6225543
-39.356182 -30.732519 2.9110916
-38.842907 -28.957008 3.9773793
-37.994411 -18.359322 2.1822617
-30.332428 -6.2453346 2.3633895
-13.304852 -6.7769256 2.2450118
-10.436262 -6.4732151 2.2049718
-16.827686 -5.8840523 2.2495058
-15.183968 -5.2792592 2.5099435
-13.446711 -4.4980655 2.3208122
-11.093032 -5.4290285 2.1549511
-9.1656532 -4.9620914 2.0409632
-11.437118 -3.7604418 2.0845282
-8.9785252 -2.5746572 2.0490592
-16.932281 -0.1709692 2.8722355
-8.4153509 -1.4003468 2.031013
-6.6544762 1.7485125 2.0047393
-31.030201 3.8797915 3.2481647
-6.4396205 2.9527934 2.1198661
-5.9599891 3.6581104 2.1695886
-30.161352 5.5699301 2.6120572
-29.896648 5.8979225 2.6323686
-26.031944 4.3544011 3.5883775
-20.299988 5.7470446 2.9202228
4.7314954 5.8790336 2.1155241
-27.428068 7.756135 2.6757498
-18.855757 6.6950469 2.8373196
4.7025266 6.3792357 2.1851542
6.676249 6.746994 2.2811244
-29.291765 9.2950411 3.646214
-26.858274 8.1717672 2.6863587
-25.348156 9.2380466 2.7295585
-23.308672 9.4535236 2.0351174
-28.49229 10.124299 3.7083182
-26.85853 10.858249 3.6820395
-24.68405 10.750256 3.000906
-23.021137 10.978128 2.4825215
-25.704475 12.352635 3.8630269
-22.869797 13.266514 3.2081721
-21.420853 12.587347 2.3594117
-23.096785 14.061616 3.1877127
-18.899488 15.695087 2.0987508
-22.446857 17.910809 3.726115
-20.208838 17.045683 2.8594744
-18.548367 16.975687 2.4185195
-17.8887 17.808998 2.9342952
-22.386015 18.825222 3.8108563
-21.516062 19.978228 3.9719396
-19.568094 18.726498 3.0746677
-17.320984 18.753126 2.5499454
-19.21023 21.080833 3.3322918
-17.138914 20.245243 2.5517073
-15.022956 21.85503 2.0864043
-19.074963 22.234083 3.4651253
-15.043097 22.884058 2.7557249
-16.299629 25.536537 3.144963
-14.452269 24.35903 2.3666754
-14.221261 27.368238 2.7769132
-13.684127 26.262051 3.9340379
-14.044338 28.152172 2.6955068
-13.974072 28.400331 2.7198317
-17.135326 31.802582 3.8154311
-13.28227 31.83733 2.2585058
-16.97123 32.684959 3.9160552
-14.201268 33.793152 3.2259631
-12.909513 32.795273 2.3283467
-11.21986 33.673817 2.4676862
-14.100161 34.376839 3.2719197
-13.339932 34.690495 3.321398
-11.396687 35.22319 3.4336562
-12.731781 37.648689 3.6315866
-12.612509 38.000336 3.6659086
-6.1536665 39.204895 2.0151634
-5.870996 38.968567 2.0125794
-4.8487158 41.980923 2.1755719
-4.5007811 42.48447 2.2071843
-7.7895885 45.580063 3.3330193
-4.3205423 44.924515 2.32059
-3.8905301 44.68021 2.320632
-7.7175665 46.909088 3.4252014
-3.1883931 46.99868 2.4168019
-2.525744 48.767754 2.511764
-1.824827 49.743755 2.5710952
-6.1506739 51.227474 3.755424
-1.4956448 50.18362 2.6055422
-5.583497 53.181618 3.9008787
-1.3318152 52.617386 2.7242389
-0.88881969 54.673916 2.8235683
-0.3149741 57.302288 2.9457405
-0.0041457489 59.890736 3.0513074
-40.046722 -29.00317 5.2841954
-39.5681 -28.927856 4.0456371
-30.873119 5.2038383 5.7051544
-25.828285 4.2879581 5.0931234
-20.245014 5.6256495 4.2105393
-19.955635 5.5586357 4.6943831
-25.264376 7.458467 5.3151207
-23.649437 6.6744127 5.1386299
-18.492689 6.6941395 4.3043423
-16.119341 7.6668153 4.4275823
-15.998648 6.1606679 4.1383514
-34.446732 9.5503235 5.8392477
-29.330051 8.7875853 5.2784348
-26.762436 9.2653379 5.3765087
-25.177738 8.3730202 5.5776792
-22.470127 8.3480167 4.5984278
-19.884026 9.8372793 5.3787389
-15.724342 9.0250282 4.5869455
-33.211166 10.456731 5.7680907
-28.026888 11.051303 5.2626252
-26.446476 11.181051 4.8612208
-26.309319 12.304821 5.1296873
-25.862701 12.454971 4.8345661
-22.464413 13.089962 4.5812426
-26.232986 14.50778 4.180644
-25.430386 14.173111 4.9592824
-18.408268 17.510242 4.7688627
-17.617676 17.513758 4.5045886
-23.456083 19.178059 4.6485991
-17.443903 18.389851 4.4411287
-22.235334 20.833561 4.2239833
-21.205629 21.824108 4.1975517
-17.77573 20.556816 5.8839226
-22.530842 22.581459 5.1182799
-21.561316 22.962582 4.3594856
-16.053982 23.953592 5.7183318
-15.375475 23.164188 4.7203026
-21.329426 24.448166 4.5488119
-16.691961 24.564823 4.9105368
-15.000573 24.182259 5.7506328
-18.893736 27.13625 5.6589785
-14.11513 27.008013 4.0338864
-13.994675 26.792133 4.7230558
-18.668026 28.672382 4.295434
-16.893288 33.532555 4.0120635
-15.253831 35.521065 4.2708774
-15.23043 37.13855 4.6307569
-15.541866 38.512589 5.4384084
-14.494588 40.52354 4.8644905
-14.283075 42.650246 5.1139092
-8.749341 51.133862 4.8921456
-8.9028635 53.412678 5.0964141
-6.8253341 55.439667 5.321424
-5.6730242 59.742596 4.3435864
-44.962139 -41.673756 6.0183444
-30.749304 5.448844 6.5052137
-36.893051 6.2528934 7.6349211
-34.431396 8.7798653 6.6195965
-32.57943 9.0357046 6.3930116
-31.70507 9.0681314 6.2749138
-33.291588 10.451341 6.6409335
-24.100067 10.793632 6.1977634
-26.673014 12.444285 6.293366
-20.107765 15.838737 6.5393524
-20.261673 16.096191 6.6128826
-18.9266 21.461193 6.6560993
-17.597733 20.47274 6.5226078
-14.551587 21.714275 7.1045232
-19.051779 22.162664 7.0192914
-16.226004 23.073969 6.7528796
-15.303738 22.967836 6.7339082
-16.691078 24.644289 6.8373356
-15.358235 24.274059 6.8411984
-18.624783 27.274338 6.4843211
-16.922348 27.604601 6.4928756
-15.547244 37.656395 7.4073939
-16.493847 38.541161 6.587811
-15.578923 38.190224 6.5146203
-14.687937 42.880188 6.8779793
-8.4176407 50.747444 6.062223
-15.568473 24.846968 8.080965
-17.169569 27.506472 8.888484
-8.8378458 51.624004 8.6266241
-8.7921629 52.773167 10.081796
-9.5484982 52.851006 12.689955
