# .PCD v0.7 - Point Cloud Data file format
VERSION 0.7
FIELDS x y z
SIZE 4 4 4
TYPE F F F
COUNT 1 1 1
WIDTH 350
HEIGHT 1
VIEWPOINT 0 0 0 1 0 0 0
POINTS 350
DATA ascii
-36.609863 -54.28706 -5.1586056
-36.719048 -53.891693 -5.1249142
-38.770947 -49.2691 -4.8224211
-51.2001 -46.621754 -3.1643715
-39.831352 -46.835217 -4.6135631
-38.094105 -45.537216 -4.4651437
-36.265656 -43.69463 -4.2624259
-35.661541 -44.481712 -4.3264871
-25.455322 -39.519043 -4.7532959
-23.35037 -39.451714 -4.7468028
-40.56863 -36.878319 -3.7242525
-33.338913 -38.474979 -3.7282603
-30.550585 -36.825943 -4.6811395
-29.713583 -37.217163 -4.6991496
-24.320461 -38.784203 -4.6370621
-22.947454 -38.330173 -4.5858188
-39.31242 -35.035542 -3.5324295
-31.000204 -35.874916 -4.5912585
-40.102646 -31.722202 -3.1497591
-36.767925 -32.135822 -3.219614
-34.654797 -31.234768 -3.0968573
-31.539171 -28.506796 -3.8194706
-24.412128 -28.836906 -4.5286241
-22.241461 -28.090342 -4.3307438
-31.181156 -26.138712 -3.5106554
-28.325981 -25.374908 -4.3047824
-28.852129 -22.816271 -3.59903
-27.383249 -19.895691 -3.634402
-25.083776 -19.196409 -4.1427102
-25.653345 -17.930933 -4.0760546
-22.324444 -12.892376 -3.1577098
-16.696503 -13.403602 -3.8039577
-18.849739 -10.749846 -3.1557777
-14.660523 -11.092738 -3.7514122
-9.7571764 -8.0592985 -3.274889
1.8759104 -4.5091105 -3.1211166
5.0221605 -3.5873098 -3.1177416
6.5904994 -3.8818345 -3.0645237
-47.351433 -43.531292 -1.380031
-46.219334 -40.811398 -2.716815
-43.964417 -36.99839 -1.6726978
-42.596069 -33.649261 -1.5021287
-40.528378 -33.132771 -2.0279529
-38.10775 -34.384758 -2.2168815
-42.932507 -32.153786 -1.47939
-40.525814 -31.730249 -1.4597267
-37.091412 -30.735193 -1.867236
-41.119846 -29.949711 -1.9427321
-37.14399 -28.725964 -2.8755393
-35.442188 -28.101383 -2.7412872
-35.778847 -26.873976 -2.7762451
-42.678677 -21.123388 -2.301079
-33.442467 -23.477465 -2.4174366
-31.674612 -23.500305 -2.3838096
-28.868383 -21.178556 -2.9889038
-42.973633 -20.487875 -2.232645
-41.196808 -20.374973 -0.011774871
-38.337559 -18.850739 -1.9991837
-28.366552 -20.499306 -2.8976586
-36.948555 -17.401152 -1.8000721
-34.638054 -16.827337 -0.85174447
-31.751099 -16.192892 -2.5444849
-25.366743 -15.057686 -2.946631
-24.72233 -12.456429 -0.70492649
-22.120689 -12.474916 -2.4507823
-24.907049 -11.95266 -0.43573055
-22.615105 -11.432079 -1.6634421
-19.444889 -10.741243 -2.9166021
-16.765057 -9.6608639 -2.791682
-15.138723 -7.5259027 -1.4217842
-13.993899 -7.2706809 -1.9195538
-10.648237 -6.5190501 -0.76369345
-8.1821308 -6.4760404 -1.5792226
-16.981106 -5.9824147 -0.034351297
-9.8744326 -5.3451481 -0.76966125
-7.694283 -4.0714126 -0.79106629
-4.5941072 -3.898299 -1.3041891
-1.2721035 -3.3964999 -1.4009225
0.84904414 -3.7077248 -1.9846892
5.7746344 -3.2166181 -2.9699197
6.536108 -3.2705114 -2.9227386
-15.494515 -1.9007056 -0.026230399
-3.632684 -1.8041732 -0.90060431
-1.0355473 -1.2620685 -1.0639358
0.45219919 -2.0418551 -1.3313091
4.2169628 -2.1671991 -1.4483889
6.4840379 -1.0790386 -1.222258
-6.194612 1.8774613 -0.19749527
-3.7812903 2.1627033 -0.47071016
-1.129941 1.5513885 -0.6564185
1.1925099 2.0677404 -0.47072142
4.5646658 1.6866176 -0.92232549
7.1231613 1.6114433 -0.93068314
10.263491 1.5858619 -0.89083827
12.998874 1.5556654 -0.81163049
15.702539 2.2047818 -0.71471882
18.199476 2.7630737 -0.55493051
-6.9147005 3.9195261 -0.010791763
-4.4781885 5.1165023 -0.048998497
-0.81657344 3.2954726 -0.37713975
1.189841 3.6322627 -0.4545275
4.1262102 4.1527967 -0.52166218
7.327704 4.1220045 -0.63029671
10.134145 4.3888125 -0.54520112
12.956079 4.7297587 -0.37001476
16.226942 4.6576991 -0.38094282
19.853701 4.8610325 -0.37138942
22.157902 4.7793307 -0.22241135
24.668552 5.6246767 -0.28365207
-4.3197956 6.876986 -0.023625614
-1.8653682 7.2685175 -0.076047301
1.0344473 7.566607 -0.095514238
4.2263565 6.7470217 -0.097899735
8.4087296 6.0272255 -0.10811397
10.269811 6.2313771 -0.18191272
13.464096 6.0656557 -0.017879685
17.070181 6.1091104 -0.23641792
20.339981 6.1365356 -0.030120291
21.680958 6.8722801 -0.043467291
24.787962 6.7228508 -0.2071403
-3.717196 9.6505356 -0.0015638008
-0.37670347 9.9901495 -0.02710888
0.84784979 10.679203 -0.016552158
5.0641794 10.373225 -0.0025014542
-40.000351 -31.587187 2.3485451
-36.304409 -32.353405 2.6225543
-35.002636 -31.4653 0.84617698
-36.048851 -29.794102 1.6001631
-37.994411 -18.359322 2.1822617
-46.668682 -16.293686 0.35947713
-38.138317 -12.829401 0.39542541
-25.046528 -12.202358 0.22014499
-34.057755 -7.0759883 1.7314241
-30.277859 -6.3038745 2.1029794
-18.740051 -6.4762239 1.4286975
-17.856253 -6.2920189 1.3805823
-13.304852 -6.7769256 2.2450118
-9.8643713 -6.5859442 1.0001459
-8.8230934 -6.7557058 0.7982803
-25.619493 -5.276866 1.4362314
-16.733044 -5.7362742 1.6653396
-13.382883 -4.4766817 2.1524847
-10.31946 -5.3331733 1.1211524
-8.5858355 -4.7014852 1.3209304
-22.009773 -2.4979095 0.35822025
-18.02463 -0.50184977 1.8821099
-16.415503 -1.0994439 1.2284608
-12.329496 -0.29071459 0.4509244
-9.2168541 -1.8009539 1.6204225
-7.5368838 -1.8383195 1.1807283
-5.4872627 -0.66011935 0.84070164
-0.59952682 -0.10983802 0.34563321
-13.830317 2.5812633 0.39271533
-10.832196 2.5224061 0.15258007
-6.5278811 1.2870061 0.96642739
-4.76085 1.5461317 0.88662487
-0.69114012 0.48875538 0.34910983
1.4163677 0.54557574 0.47933269
-30.161354 5.5699306 2.6120572
-28.388525 5.6587958 2.1204786
-22.897095 4.6001987 0.9853335
-20.285858 5.8465781 2.0778019
-16.152941 5.1409559 0.56549901
-12.523981 4.9447021 0.2975831
-9.9480782 4.6428366 0.15390301
-7.8275056 4.4274077 0.089461736
-5.8022623 5.1945429 0.73413146
-0.98585153 3.5555699 0.57823944
0.85791892 3.9066246 0.26140666
4.9631252 5.5829525 0.95388383
6.4447699 5.0371222 0.60613388
9.731163 5.8502045 0.26667792
12.919639 5.8507342 0.080412745
18.136122 5.2322121 0.012901696
-27.32687 7.8481102 2.680819
-25.252968 7.8961039 2.1536136
-22.4447 8.0407276 1.4852415
-18.642618 7.0892954 1.3316139
-17.770729 7.1984282 0.71435374
-13.710502 6.9091454 0.39417443
-10.462511 6.9799571 0.21302554
-7.8200731 8.3010664 0.11186209
-5.8220339 6.9633517 0.033619639
4.5226035 6.4837117 1.1988115
6.9165545 6.308394 1.0945202
10.527472 6.3306594 0.41409102
14.283304 6.692904 0.67123801
15.230313 6.7151918 1.1103202
19.46349 6.7410007 0.19610398
21.869036 7.1585388 0.42374733
24.634151 8.7857857 0.54695356
31.824694 7.1145811 0.193737
33.524197 8.551054 0.65235758
-24.890987 9.8414097 2.7705178
-22.616041 10.289586 2.0878606
-20.545605 11.362573 1.6413014
-16.29273 9.7479639 0.73594016
-13.526848 11.683053 0.36395121
-9.1051321 10.953433 0.20366529
-7.279552 9.9381323 0.11216226
-3.3235769 10.82215 0.024854431
-2.8381057 11.816867 0.043917749
1.9311835 11.07059 0.0011438107
11.585402 9.7596636 0.60181016
12.208532 10.030847 0.26327401
26.423763 9.1669044 0.5022974
32.413952 11.031018 1.1694332
35.244808 11.247142 1.1508201
-21.420853 12.587348 2.3594117
-20.184231 12.212743 1.7031411
-15.979499 13.722066 1.3694685
-13.879846 13.488148 0.66607147
-10.300313 13.358295 0.20358832
-6.3627901 14.400684 0.11405021
-0.7901606 14.246882 0.078517519
0.38638198 14.81372 0.10078064
6.5269055 14.108274 0.14258407
35.629116 12.076065 1.4505509
36.857948 13.024116 1.4057691
-19.183941 16.818922 2.4788392
-16.556345 16.178539 1.7065833
-12.994045 16.028971 0.89039153
-11.210048 16.741739 0.35701478
-6.0450516 17.176104 0.16139407
-5.9234705 17.382145 0.17209697
1.3836377 15.284352 0.11945656
3.1298437 15.634186 0.1407287
23.065737 15.282019 0.40345314
-17.130489 19.114609 2.4415791
-12.926259 19.733784 1.3906946
-11.061595 19.140072 0.68577611
-5.6647019 18.866127 0.20552228
-15.340247 23.110292 2.7608597
-14.153646 22.208998 1.9945427
-9.4181643 22.929218 0.57617903
-3.1471164 23.182945 0.30818024
-2.9302301 23.450027 0.31624186
9.9661865 23.499355 0.46607399
-13.334502 24.352812 2.0061612
-10.077019 25.077627 1.3007541
-8.8553219 24.705469 0.65818685
-0.92269266 24.973516 0.37279049
1.2580367 25.863182 0.43322656
4.4652896 26.842133 0.48919186
-14.172984 27.736389 2.6545162
-8.7556305 27.57 0.75923216
-13.043418 32.445702 2.3022921
-10.725042 32.117661 1.576251
-12.694176 33.365017 2.3715911
-11.152301 33.625969 2.4037755
-6.3070278 35.682518 1.8517842
-5.3647599 34.366634 1.0187796
-6.371666 37.780479 1.9446539
-4.0770316 38.321278 1.2467082
-6.1536665 39.204895 2.0151634
-3.6486962 40.002022 1.3893068
-2.5422895 41.514565 1.2366457
-4.3310561 43.319328 2.248735
-1.8024237 43.416073 1.2970914
-3.5514627 46.358177 2.3873632
-0.56985211 46.518074 1.4006189
-3.0174999 48.082615 2.4685137
-2.172328 49.255993 2.5431514
0.64910281 49.549328 1.4762532
-1.3318152 52.617386 2.7242389
1.4250709 51.362514 1.5292459
-0.82203716 55.063553 2.8420112
2.7542617 55.679531 1.7215999
-0.21273553 57.658897 2.961874
3.2950253 60.723343 1.8421838
-39.727642 -28.952963 4.4584899
-38.842907 -28.957008 3.9773793
-16.896732 -0.20859265 3.1261992
-30.925482 4.7624893 4.886158
-25.857382 4.2974505 4.8781605
-20.274321 5.6728005 3.7254524
-29.355976 8.3545208 5.3404436
-25.3678 7.8372145 5.298738
-23.059782 7.5112152 4.8685288
-18.64385 6.7063165 3.7843645
-15.893049 7.9427891 4.4363303
-34.194206 9.8198423 5.8335443
-32.985695 10.285061 5.719748
-28.158798 10.126272 4.2419915
-26.380955 11.196465 4.3460379
-23.663673 11.837733 3.0090117
-19.884026 9.8372793 5.3787389
-15.721581 9.0782185 4.5841975
-25.911175 12.89203 4.5414047
-22.837889 13.275076 3.3403897
-22.446857 17.910809 3.726115
-18.294708 17.561869 4.3567681
-17.667656 17.559391 4.3292704
-22.743742 19.195873 4.1654644
-19.412626 19.406622 3.1491227
-17.478931 18.535191 4.4845004
-21.827061 22.612045 4.4441237
-19.271179 22.02335 3.5030134
-15.404662 23.214527 4.2854333
-14.796228 22.942158 4.1763425
-21.397318 24.428843 4.5480018
-20.989977 24.544765 4.5528593
-16.370447 24.81097 4.4627323
-14.168789 25.703945 4.7155862
-18.818497 27.648293 5.204463
-14.11513 27.008013 4.0338864
-17.029297 32.144035 3.8547697
-16.61771 33.757748 4.0439043
-13.60832 34.499466 3.2980971
-11.396687 35.22319 3.4336562
-15.459006 37.700806 5.0469561
-13.826848 37.420567 4.0925226
-15.486429 40.09074 4.7686934
-14.328238 40.567841 4.8773108
-14.283075 42.650246 5.1139092
-7.7463746 46.37748 3.3883286
-6.2254558 50.726631 3.7197196
-7.4696922 51.87558 4.3837781
-5.5834975 53.181614 3.9008789
-6.8253341 55.439667 5.321424
-5.6730242 59.742596 4.3435864
-0.0041457489 59.890736 3.0513074
-44.962139 -41.673756 6.0183444
-30.749304 5.4488444 6.5052137
-36.893051 6.2528934 7.6349211
-34.431396 8.7798653 6.6195965
-32.11055 8.9728842 6.3189259
-33.210499 10.000402 6.5829883
-31.70507 9.0681314 6.2749138
-24.100067 10.793632 6.1977634
-27.169264 12.183538 6.1559463
-26.610981 12.476878 6.3105431
-20.210371 16.010374 6.5883727
-18.167994 20.527849 6.5882788
-17.597733 20.47274 6.5226078
-18.989727 21.577965 6.6868863
-15.539006 22.880308 6.7187934
-14.59528 22.471218 7.0399141
-16.143631 24.550541 7.1630168
-14.751465 24.328453 6.4628577
-18.624781 27.274338 6.4843211
-17.045959 27.555536 7.6906796
-15.795523 38.157291 6.6922264
-14.931144 37.652843 7.3856587
-15.342331 42.537392 7.2331882
-14.469806 42.994446 6.7595763
-8.3156109 50.618015 6.0490112
-8.7297726 51.315155 7.3576341
-8.7921629 52.773167 10.081796
-9.5484982 52.851006 12.689955
